x,y,z,ring,intensity
-18.092743,7.0206909,2.9562509,26,4
-18.055115,7.0010719,3.4355321,27,5
-18.042328,6.9903488,3.9207282,28,4
-5.3979492,2.4652405,0.04684341,13,0
-18.015472,6.9745941,4.4019494,29,4
-6.0576477,2.7036896,0.061347961,14,0
-15.744995,6.1515961,4.5387311,30,1
-6.4497681,2.8441811,0.16736102,15,0
-7.2067566,3.1479988,0.22027683,16,0
-8.163269,3.496685,0.27621853,17,0
-9.5588074,4.0059624,0.31524611,18,0
-11.52301,4.7229042,0.35713708,19,0
-16.436371,6.5082092,1.1027822,22,2
-17.271454,6.8079033,1.52683,23,1
-17.845642,7.011795,1.9904583,24,3
-17.956818,7.0463104,2.472445,25,4
-17.937317,7.033165,2.949779,26,4
-17.905548,7.0155411,3.4262137,27,5
-17.879944,7.0001144,3.9068756,28,4
-5.4283142,2.5007095,0.036663413,13,0
-17.834778,6.9776268,4.3822241,29,7
-6.0729065,2.7359047,0.05576098,14,0
-15.725494,6.2051659,4.5394053,30,1
-6.4022217,2.8546677,0.17622209,15,0
-7.2268677,3.1845131,0.21482146,16,0
-8.1954346,3.5408669,0.26932323,17,0
-9.5505981,4.0398674,0.31511903,18,0
-11.508942,4.7612572,0.35762274,19,0
-14.139404,5.7300301,0.43089211,20,1
-17.667267,7.0227127,1.0474764,22,2
-17.682648,7.0223999,1.5189006,23,1
-17.704651,7.0245209,1.9906104,24,3
-17.811951,7.0579987,2.4694967,25,4
-17.77951,7.0400085,2.9430537,26,4
-17.746063,7.0216866,3.415956,27,5
-17.733856,7.0110931,3.8945334,28,6
-17.689056,6.9885902,4.3667884,29,6
-15.749695,6.2713776,4.5466495,30,1
-6.4248657,2.8894463,0.169595,15,0
-16.183929,6.5343552,1.1136831,22,1
-17.331879,6.9561501,1.5262119,23,1
-17.563721,7.0364609,1.9907566,24,3
-17.656006,7.0647087,2.466208,25,4
-17.623688,7.0466766,2.9364238,26,4
-17.603577,7.0331879,3.4070277,27,4
-17.591583,7.0226631,3.8825755,28,6
-17.534149,6.9953156,4.3501406,29,6
-15.766205,6.335041,4.5527511,30,1
-15.875336,6.3697891,5.0101633,31,1
-16.142426,6.5712128,1.1153613,22,1
-17.386627,7.0325127,1.5253808,23,1
-17.397278,7.0305443,1.9906776,24,3
-17.50824,7.0660782,2.4629951,25,4
-17.470398,7.0459213,2.929702,26,4
-17.444946,7.0303688,3.396524,27,4
-17.431427,7.0192184,3.868381,28,4
-17.38736,6.9967384,4.3341255,29,6
-15.753235,6.3811226,4.5538979,30,1
-15.930603,6.4416084,5.0237446,31,1
-15.92276,6.5480919,1.1248208,22,1
-17.002747,6.9514046,1.5332619,23,1
-17.258362,7.0422058,1.9908388,24,3
-17.341156,7.067482,2.4594696,25,6
-17.315613,7.0458107,3.3889208,27,6
-17.296692,7.0326042,3.8575816,28,8
-17.253021,7.0100937,4.3206015,29,6
-15.758057,6.4414406,4.5588593,30,1
-15.911163,6.4933434,5.0250697,31,1
-15.783051,6.5500641,1.1308837,22,1
-17.095306,7.0455208,1.5316914,23,1
-17.104065,7.0428925,1.9908516,24,3
-17.338135,7.1261063,2.460649,25,8
-17.336029,7.1192513,2.9261887,26,6
-17.329407,7.1106606,3.3922706,27,6
-17.295532,7.0916824,3.8602076,28,8
-17.105225,7.0133057,4.3046169,29,6
-15.73996,6.489109,4.5594769,30,1
-15.892914,6.5414124,5.025692,31,1
-15.620728,6.5493393,1.1379373,22,1
-16.895844,7.0352325,1.5359782,23,1
-16.964233,7.0556335,1.9910244,24,3
-17.343628,7.1955948,2.4622536,25,8
-17.345215,7.1901169,2.9286933,26,6
-17.327362,7.1771622,3.39467,27,6
-17.308411,7.1637268,3.8646801,28,8
-16.962555,7.0249672,4.2896748,29,6
-15.734192,6.548336,4.5624738,30,1
-15.907227,6.6088181,5.0327349,31,1
-15.462646,6.5425072,1.1448219,22,1
-16.782898,7.0500374,1.5385015,23,1
-16.823242,7.0597687,1.991089,24,3
-17.342072,7.255043,2.4634981,25,8
-17.326904,7.2430305,2.9294791,26,6
-17.30722,7.2292824,3.3953524,27,6
-17.292023,7.2171898,3.8657522,28,8
-16.833557,7.0337791,4.2760925,29,6
-15.752716,6.6102028,4.5688481,30,1
-17.459412,7.3860321,0.58024597,21,2
-15.323395,6.5421333,1.1508645,22,1
-16.634644,7.0504112,1.5417244,23,1
-16.691681,7.0668182,1.9911945,24,3
-17.2677,7.2861366,2.4625571,25,8
-17.247009,7.2719116,2.9268847,26,6
-17.214447,7.2530479,3.3902318,27,4
-17.162323,7.2265015,3.8549047,28,4
-16.688019,7.0354195,4.2603307,29,6
-15.820831,6.6916161,4.582993,30,1
-15.225159,6.5572014,1.1550667,22,1
-16.46051,7.0397263,1.5454581,23,1
-16.549103,7.068779,1.9912378,24,3
-17.237976,7.3344727,2.4629641,25,6
-17.24704,7.3318825,2.9287,26,3
-17.086456,7.2624664,3.3822794,27,4
-17.034607,7.2358627,3.8442469,28,5
-16.55368,7.0406723,4.2460127,29,5
-15.802002,6.7394524,4.5836263,30,1
-15.898773,6.7715492,5.0433116,31,1
-15.104645,6.5628967,1.1602651,22,1
-16.37204,7.0621567,1.5474859,23,1
-16.42337,7.0766602,1.9913605,24,3
-17.183929,7.3731041,2.4626417,25,2
-17.193054,7.370533,2.9275427,26,1
-16.965942,7.2741852,3.374918,27,4
-4.7834778,2.4700394,0.028879762,12,0
-16.906952,7.2445793,3.8335845,28,5
-16.424988,7.0474319,4.2324138,29,5
-15.790436,6.7901573,4.585413,30,1
-16.819,7.322506,0.62275183,21,2
-14.932678,6.5571365,1.167737,22,1
-16.185272,7.0553551,1.551513,23,1
-16.277283,7.0864372,1.9915159,24,3
-17.088867,7.4062691,2.4613223,25,2
-17.044281,7.3821793,2.9214807,26,1
-16.83432,7.2918243,3.3670831,27,4
-4.7698975,2.4884262,0.030780911,12,0
-16.76825,7.2591553,3.8222613,28,5
-5.3157654,2.7075806,0.046448946,13,0
-16.289062,7.0612679,4.2184501,29,5
-5.7067871,2.8636284,0.12661684,14,0
-6.1686707,3.0481224,0.20952606,15,0
-7.089386,3.4472961,0.22381961,16,0
-14.86496,6.5860062,1.1705503,22,1
-16.123444,7.0909233,1.5530226,23,2
-16.137512,7.0907135,1.991601,24,3
-16.720245,7.3206863,2.4515038,25,6
-16.70163,7.3008919,3.3588591,27,6
-4.7643127,2.507515,0.030486107,12,0
-16.643188,7.2711067,3.8120217,28,5
-5.3059387,2.7268257,0.047214627,13,0
-16.157501,7.0689316,4.2046394,29,5
-5.6423645,2.8619118,0.14090252,14,0
-15.771149,6.9071503,4.5905967,30,1
-6.1541138,3.0684013,0.21104789,15,0
-15.93335,6.9665031,5.0631056,31,1
-7.0469971,3.4575691,0.23062694,16,0
-7.9421082,3.8223953,0.29443848,17,0
-9.3630371,4.4025269,0.32545793,18,0
-13.663544,6.1576843,0.46311128,20,1
-16.028534,7.1210289,0.67672551,21,2
-14.692963,6.5685806,1.1780593,22,1
-15.812958,7.0209885,1.5594411,23,1
-16.008392,7.0949669,1.9916872,24,3
-16.223999,7.1770058,2.4376631,25,3
-16.058167,7.1033707,2.8704317,26,2
-16.080841,7.1066704,3.3110423,27,2
-4.7501831,2.5218391,0.032887101,12,0
-16.06424,7.0938644,3.7533669,28,3
-5.2947083,2.7441216,0.048461914,13,0
-16.005219,7.0638771,4.1878781,29,5
-5.5964966,2.8660431,0.15065265,14,0
-15.788422,6.9697533,4.5970016,30,1
-6.1528015,3.0925102,0.20970881,15,0
-15.933838,7.0227814,5.0674329,31,1
-7.0100403,3.4698868,0.23635244,16,0
-7.9514465,3.8568192,0.29133391,17,0
-9.3580017,4.4356384,0.32479262,18,0
-11.199707,5.193367,0.37817812,19,0
-13.574493,6.1700897,0.47054744,20,1
-15.896027,7.12323,0.68529928,21,2
-14.574829,6.5723381,1.1831522,22,1
-15.865356,7.0987053,1.5586667,23,2
-15.877533,7.0977936,1.991758,24,3
-15.969055,7.1295013,2.431145,25,5
-15.951355,7.116291,2.8662534,26,3
-15.939117,7.1053047,3.3018508,27,4
-4.7537842,2.5435028,0.029870629,12,0
-15.930145,7.0955887,3.7418823,28,4
-5.2870178,2.7628632,0.048716903,13,0
-15.757599,7.0188599,4.158524,29,3
-5.539917,2.8654404,0.16311014,14,0
-15.799988,7.0302582,4.6025476,30,1
-6.1314392,3.1083832,0.21283937,15,0
-15.892212,7.0619469,5.0640769,31,3
-7.0021667,3.4941597,0.2363137,16,0
-7.9388123,3.8821983,0.29200578,17,1
-9.3309937,4.4595947,0.32735181,18,0
-11.13562,5.2079163,0.38465631,19,0
-13.527771,6.1996536,0.47393382,20,1
-15.793152,7.1370163,0.69179308,21,2
-14.458588,6.5762482,1.1881568,22,1
-15.673737,7.0755081,1.5627223,23,1
-15.750488,7.1014862,1.9918429,24,4
-15.849335,7.1365356,2.4287472,25,5
-15.824402,7.1202545,2.8609378,26,3
-15.819702,7.1123505,3.2944446,27,4
-4.7466125,2.5607376,0.030106306,12,0
-15.796173,7.0966187,3.7303917,28,4
-5.2774963,2.7808304,0.049469471,13,0
-15.530548,6.980854,4.1318188,29,3
-5.4923096,2.8683205,0.17330754,14,0
-15.754608,7.0674591,4.5991673,30,1
-6.1191406,3.1279373,0.21393955,15,0
-15.777557,7.0708466,5.0473485,31,5
-6.9702148,3.5096893,0.24023795,16,0
-7.9111328,3.9025726,0.29456532,17,1
-9.3217773,4.4922142,0.32669032,18,0
-11.172058,5.2654991,0.37847662,19,0
-13.482605,6.2306824,0.47679293,20,2
-14.357574,6.59235,0.7918278,21,1
-14.333038,6.5765648,1.1934052,22,1
-15.61499,7.1077003,1.5640694,23,2
-15.628937,7.1076355,1.991972,24,2
-15.720306,7.1398849,2.4261744,25,5
-15.699188,7.1251221,2.855926,26,3
-15.67807,7.1103668,3.2855392,27,4
-4.7424622,2.580719,0.028176308,12,0
-15.671356,7.1015701,3.7202673,28,4
-5.2709961,2.8015404,0.048236966,13,0
-15.398956,6.9821396,4.1181774,29,3
-5.4461365,2.8729515,0.18214881,14,0
-15.646851,7.07938,4.586566,30,3
-6.1009216,3.1463966,0.21544683,15,0
-15.648254,7.0738754,5.0286102,31,5
-6.9524841,3.5314941,0.24202228,16,0
-7.8995361,3.9302368,0.29494762,17,1
-9.3011169,4.5209694,0.3282038,18,0
-11.194824,5.3191032,0.37433112,19,0
-13.427338,6.2593231,0.48091877,20,4
-14.203766,6.5823593,0.80192649,21,1
-14.180939,6.5672264,1.2000101,22,1
-15.343262,7.0523682,1.5697143,23,1
-15.493469,7.10989,1.9920466,24,4
-15.582947,7.1416512,2.4232965,25,4
-15.558289,7.1253357,2.8499181,26,5
-15.56311,7.1214218,3.2786119,27,5
-4.7330017,2.5982628,0.028970718,12,0
-15.527222,7.1003418,3.7078252,28,6
-5.2573242,2.8191185,0.050000548,13,0
-15.299408,6.9986954,4.1084461,29,3
-5.3963623,2.8757706,0.19281042,14,0
-15.527161,7.0883522,4.5716953,30,3
-6.0897522,3.1679382,0.21616113,15,0
-15.530762,7.0837631,5.0115786,31,5
-6.9449768,3.55933,0.24166739,16,0
-7.8835449,3.9579353,0.29598272,17,2
-9.2814026,4.5522804,0.32947648,18,0
-11.121399,5.3344879,0.38175976,19,0
-13.38382,6.2957458,0.48385024,20,4
-15.565369,7.2209396,0.7051636,21,2
-14.059113,6.5730438,1.2052385,22,1
-15.357788,7.120575,1.5697184,23,2
-15.367981,7.1190147,1.9922162,24,2
-4.726593,2.618351,0.028697848,12,0
-15.506592,7.1540871,3.7087574,28,6
-5.244873,2.838562,0.05128479,13,0
-15.321167,7.0695076,4.1149879,29,4
-5.3693848,2.8895035,0.19762027,14,0
-15.399017,7.096508,4.5557065,30,3
-6.0707703,3.1876602,0.21851826,15,0
-15.404846,7.0928688,4.9932451,31,5
-6.9277954,3.5795593,0.24343324,16,0
-7.8688049,3.9823341,0.29697382,17,2
-9.2704468,4.5829239,0.32962525,18,0
-11.106445,5.3694763,0.38224864,19,0
-13.333221,6.3228722,0.48758852,20,4
-13.955383,6.5850296,0.81795967,21,1
-13.954376,6.5791245,1.2097249,22,1
-15.11731,7.0726929,1.5747191,23,1
-15.248749,7.1232033,1.9923191,24,4
-15.56781,7.2539406,2.4255505,25,6
-15.561523,7.2452583,2.8538985,26,6
-15.546143,7.2326508,3.2821035,27,8
-4.7227783,2.6370506,0.0278548,12,0
-15.524963,7.2175293,3.7135358,28,8
-5.2333679,2.8556404,0.052537322,13,0
-15.268433,7.1019592,4.1112742,29,4
-5.3523254,2.9045868,0.20014083,14,0
-15.278992,7.1004639,4.5404968,30,3
-6.0708313,3.2124481,0.21678126,15,0
-15.288757,7.0985565,4.9761629,31,5
-6.910553,3.5997162,0.2451998,16,0
-7.855835,4.0074654,0.29765189,17,2
-9.2576294,4.612751,0.33004415,18,0
-10.65921,5.2169418,0.43529212,19,0
-13.291718,6.3537292,0.49044859,20,4
-13.896637,6.6104546,0.82140565,21,1
-13.840576,6.5806999,1.2146198,22,1
-15.113983,7.1258965,1.5750407,23,1
-15.129639,7.1267738,1.9924169,24,2
-15.573151,7.3123131,2.4270129,25,6
-15.565063,7.3027763,2.855906,26,7
-15.547821,7.2892838,3.2845631,27,8
-4.7136536,2.6534386,0.02863729,12,0
-15.528442,7.2748451,3.7167492,28,8
-5.2058105,2.8657112,0.058256507,13,0
-15.159149,7.109848,4.1000438,29,6
-5.3352661,2.9196053,0.20266187,14,0
-15.155396,7.102253,4.524704,30,5
-6.0599976,3.2325821,0.21748078,15,0
-15.169159,7.1020966,4.958406,31,5
-6.8991699,3.6258774,0.24556911,16,0
-7.8486328,4.0389595,0.29712105,17,2
-9.2358093,4.6430893,0.33158982,18,0
-11.057983,5.4365234,0.38528907,19,0
-13.253418,6.3919182,0.49285519,20,2
-13.78067,6.616951,0.82880151,21,1
-13.753876,6.5997581,1.2182646,22,1
-14.756104,7.0314217,1.5823746,23,1
-15.009949,7.1362686,1.9926007,24,2
-15.548218,7.3647079,2.4277067,25,6
-15.529144,7.350338,2.8559322,26,5
-15.510162,7.3359833,3.2841139,27,5
-4.7017517,2.6711617,0.029991984,12,0
-15.496368,7.3238411,3.7165151,28,6
-5.1684265,2.8740463,0.066488147,13,0
-15.036499,7.1181641,4.0874348,29,6
-5.3225098,2.9392395,0.20386326,14,0
-15.040344,7.1138458,4.5107183,30,5
-6.040863,3.2521362,0.21984076,15,0
-15.04718,7.1107407,4.9407253,31,5
-6.8824768,3.6444626,0.24731696,16,0
-7.83078,4.0600243,0.29872096,17,2
-9.2272644,4.6725655,0.33144963,18,0
-11.056396,5.474781,0.38420105,19,0
-13.220276,6.423069,0.49497867,20,2
-15.434814,7.3921356,0.71122575,21,2
-13.798737,6.666748,1.2160254,22,1
-14.869446,7.1315689,1.5803816,23,1
-14.897827,7.1381607,1.9926786,24,2
-15.464783,7.3808784,2.4263341,25,6
-15.453125,7.3696823,2.8533492,26,6
-4.2487793,2.4916916,0.011643887,11,0
-15.443329,7.3593102,3.2808433,27,6
-4.6982422,2.6887627,0.029137135,12,0
-15.436951,7.3503532,3.7128184,28,6
-5.1201172,2.8732491,0.078142047,13,0
-14.917725,7.1172676,4.0746989,29,6
-5.3112183,2.9553185,0.2050159,14,0
-14.921844,7.1131058,4.4954515,30,4
-6.0305176,3.2708664,0.22052348,15,0
-14.930908,7.1109695,4.9232526,31,5
-6.8691711,3.6697273,0.24804854,16,0
-7.8125916,4.0866508,0.30007708,17,2
-9.214325,4.7067871,0.33165872,18,0
-10.995575,5.4945564,0.39007616,19,0
-13.132629,6.4390869,0.50212109,20,1
-15.281982,7.3875351,0.7211417,21,2
-13.836182,6.7403717,1.2140716,22,1
-14.547058,7.049778,1.5870022,23,1
-14.783813,7.1487885,1.9928832,24,3
-15.437836,7.4321175,2.4269738,25,6
-15.44632,7.4297371,2.8550353,26,2
-4.2112732,2.4962273,0.02185452,11,0
-15.429199,7.4160652,3.2823453,27,2
-4.6880188,2.7071953,0.029952645,12,0
-15.346375,7.3733101,3.7062974,28,3
-5.0739441,2.8771973,0.088850498,13,0
-14.800781,7.1266518,4.0628061,29,6
-5.3001099,2.9756584,0.20576835,14,0
-14.801575,7.1210403,4.4805894,30,4
-6.0166321,3.2926598,0.22166836,15,0
-14.810913,7.1190948,4.9058957,31,4
-6.855957,3.6898041,0.24907899,16,0
-7.8000488,4.1100006,0.30073738,17,2
-9.1929321,4.7305565,0.33339679,18,0
-10.756134,5.4263344,0.4180007,19,0
-13.086609,6.4641342,0.50547099,20,2
-15.196991,7.4018936,0.72641075,21,2
-13.805664,6.7745323,1.2152193,22,1
-14.639954,7.1411705,1.5854129,23,2
-14.66275,7.1454849,1.9928985,24,3
-15.343414,7.442749,2.4252546,25,1
-15.392059,7.4582863,2.8536959,26,1
-4.2064209,2.5117683,0.021480441,11,0
-15.364136,7.4397202,3.2792244,27,2
-4.6914673,2.7279396,0.026935697,12,0
-15.403381,7.4509201,3.7151818,28,3
-5.0327759,2.879097,0.098516583,13,1
-14.684052,7.1253777,4.050303,29,6
-5.3082886,3.0004387,0.20196342,14,0
-14.695984,7.1247177,4.4673333,30,4
-6.0008545,3.3089066,0.22356939,15,0
-14.700226,7.1205482,4.8894172,31,4
-6.8395691,3.7119179,0.25051105,16,0
-7.7824097,4.1348953,0.30207253,17,2
-9.1752319,4.7603912,0.33438611,18,1
-10.913971,5.5409012,0.39727008,19,0
-12.958405,6.4579964,0.5166012,20,1
-15.202271,7.4634209,0.72518742,21,2
-13.78186,6.8179665,1.2160336,22,1
-14.449066,7.1124268,1.5894258,23,1
-14.544769,7.1496086,1.9930205,24,3
-15.173492,7.4259834,2.4213195,25,1
-15.286041,7.470356,2.849638,26,1
-4.2007141,2.5292549,0.021135807,11,0
-15.254608,7.4501305,3.2727337,27,1
-4.671051,2.740509,0.030984163,12,0
-15.546417,7.574604,3.733798,28,3
-4.9801331,2.8782349,0.11118805,13,1
-14.570343,7.1315308,4.0386028,29,6
-5.2904663,3.0163765,0.20450461,14,0
-14.58255,7.131031,4.4532866,30,4
-5.9963684,3.3333397,0.22267056,15,0
-14.585388,7.1262207,4.8726792,31,4
-6.8296509,3.7386665,0.25052762,16,0
-7.7676086,4.1629601,0.30280483,17,2
-9.1638184,4.7952881,0.3343327,18,0
-10.863922,5.5647926,0.40181446,19,0
-12.82196,6.4503517,0.52846098,20,3
-13.652313,6.822216,0.83413804,21,1
-13.809479,6.887928,1.2145077,22,1
-14.377441,7.1398582,1.5911105,23,2
-14.434753,7.1599846,1.9932307,24,3
-14.986145,7.4037094,2.416899,25,3
-14.953064,7.3826752,2.8327382,26,3
-4.185791,2.5437393,0.023733616,11,0
-14.949402,7.3749428,3.2502093,27,3
-4.6589355,2.7580452,0.032343507,12,0
-15.571472,7.6497459,3.7398801,28,3
-4.937561,2.8830261,0.1208986,13,1
-14.455536,7.1398201,4.026937,29,6
-5.2738953,3.0342064,0.20661283,14,0
-14.464417,7.1378632,4.4386973,30,4
-5.9804688,3.3541946,0.22422397,15,0
-14.474731,7.1364708,4.8569818,31,4
-6.8109131,3.7561378,0.2526387,16,0
-7.7602234,4.1886444,0.30252802,17,2
-9.1566467,4.8254509,0.33393347,18,0
-10.737244,5.5455894,0.41599786,19,0
-12.792358,6.4817848,0.53022897,20,2
-13.627136,6.8582916,0.83522701,21,1
-14.300262,7.1602898,1.1921194,22,1
-14.269562,7.1404076,1.5934575,23,2
-14.330444,7.1623421,1.9933265,24,3
-14.897552,7.4149933,2.4153357,25,4
-14.886383,7.4038315,2.8306577,26,4
-4.1791077,2.5584183,0.023947597,11,0
-14.871918,7.3911552,3.2460225,27,5
-4.6604614,2.7779846,0.029871106,12,0
-15.629242,7.7294235,3.7489898,28,3
-4.8930359,2.8826561,0.13155031,13,1
-14.349976,7.1417236,4.0158753,29,5
-5.25177,3.045208,0.21047258,14,0
-14.35733,7.1390915,4.425138,30,4
-5.9699097,3.3727417,0.22491133,15,0
-14.369751,7.1386909,4.8414946,31,4
-6.7939148,3.7793884,0.25335562,16,0
-7.7365723,4.2121658,0.30418062,17,2
-9.129303,4.8522034,0.33573043,18,0
-10.99292,5.7085876,0.3826921,19,0
-11.513641,5.9440918,0.65225518,20,1
-13.613739,6.9072227,0.83510792,21,1
-13.899384,7.0331001,1.2097648,22,1
-13.912018,7.033165,1.600643,23,2
-14.214386,7.1664581,1.9934654,24,3
-14.286682,7.1937637,2.3974843,25,4
-14.268738,7.179657,2.7974544,26,3
-4.1674194,2.5748329,0.024191022,11,0
-14.255096,7.1674881,3.1977158,27,3
-4.6411438,2.7925644,0.032298565,12,0
-14.236328,7.1529465,3.6010408,28,4
-4.8470154,2.885643,0.14124084,13,1
-14.227356,7.1429024,4.0034308,29,5
-5.2351074,3.0631027,0.21166348,14,0
-14.243988,7.1445618,4.4116545,30,4
-5.9522705,3.3927155,0.22604275,15,0
-14.254913,7.1435242,4.8254118,31,4
-6.7809143,3.8029251,0.2540735,16,0
-7.7276306,4.2409935,0.30395365,17,2
-9.1184692,4.8851662,0.33565605,18,0
-10.966949,5.7411995,0.38433945,19,0
-11.450775,5.9614296,0.65719116,20,3
-13.609436,6.9593391,0.83460665,21,1
-13.914673,7.0953026,1.2087954,22,1
-13.751343,7.0137672,1.6040425,23,2
-14.105927,7.172348,1.9936209,24,3
-14.16217,7.1865959,2.7932448,26,4
-4.1632385,2.5930519,0.023264885,11,0
-14.154053,7.1769676,3.1917787,27,4
-4.6362915,2.8122025,0.031482339,12,0
-14.137299,7.1632729,3.5932498,28,5
-4.8032837,2.8878326,0.15142524,13,1
-14.123138,7.1508026,3.9929256,29,5
-5.2171631,3.0787201,0.21420622,14,1
-14.132812,7.1493187,4.3978763,30,4
-5.9315186,3.4096184,0.22879517,15,0
-14.136902,7.1451645,4.8079824,31,4
-6.7678223,3.8264198,0.25479257,16,0
-7.7096558,4.2656021,0.30529535,17,2
-9.0949707,4.9122047,0.33745563,18,0
-10.802307,5.7087212,0.40300298,19,0
-11.384308,5.9767494,0.66247499,20,2
-13.60318,7.0106392,0.83423793,21,1
-13.95694,7.1703453,1.206605,22,2
-13.973236,7.1721268,1.5999649,23,2
-13.997559,7.1776581,1.9937712,24,3
-14.084229,7.2121887,2.3937688,25,5
-14.057465,7.1938171,2.789134,26,4
-4.1537781,2.6088181,0.024095654,11,0
-14.0513,7.1850624,3.1856871,27,4
-4.6331177,2.8326492,0.030126691,12,0
-14.031128,7.1697159,3.584666,28,5
-4.7649231,2.8922615,0.16012108,13,1
-14.020752,7.1589851,3.9826589,29,5
-5.1973877,3.0934372,0.2171998,14,1
-14.028931,7.1567993,4.3852501,30,4
-5.9160461,3.4289322,0.23033297,15,0
-14.029724,7.1511459,4.7925601,31,4
-6.7475281,3.8464966,0.25694907,16,0
-7.6951599,4.2918434,0.30601156,17,2
-9.0767517,4.9416962,0.33845437,18,0
-10.932648,5.8146057,0.38542891,19,0
-11.290833,5.9789734,0.67037725,20,2
-13.585907,7.0568619,0.83464348,21,1
-13.845184,7.1732788,1.2113681,22,1
-13.86322,7.1759377,1.602373,23,2
-13.892944,7.1840858,1.9939389,24,3
-13.97406,7.2163467,2.3916154,25,5
-13.954651,7.2013283,2.7851233,26,4
-4.1460266,2.6253738,0.024341941,11,0
-13.948639,7.1926117,3.1795909,27,4
-4.6160278,2.846489,0.03309679,12,1
-13.926849,7.176445,3.5762749,28,5
-4.73703,2.9014778,0.16584349,13,1
-13.914948,7.1649323,3.9719009,29,5
-5.1934814,3.1155815,0.21614134,14,1
-13.917969,7.1603851,4.3714623,30,4
-5.8970032,3.4465027,0.23268163,15,0
-13.93161,7.1607323,4.778811,31,4
-6.7349854,3.868454,0.25764906,16,0
-7.683136,4.3172913,0.30639207,17,2
-9.0593262,4.9692879,0.33942711,18,0
-10.912781,5.8473778,0.38638616,19,0
-11.227325,5.9921799,0.67544782,20,3
-13.596802,7.113266,0.83308768,21,1
-13.769104,7.1892624,1.2145352,22,2
-13.763611,7.1808014,1.6045601,23,1
-13.789703,7.1873169,1.9940622,24,3
-13.870728,7.2198219,2.3895905,25,5
-13.85141,7.204792,2.7809639,26,4
-4.1472778,2.6450729,0.021649599,11,0
-13.841919,7.1944122,3.1729984,27,4
-4.6097717,2.8641891,0.032808781,12,1
-13.823944,7.1799622,3.5678391,28,5
-4.7009583,2.905304,0.17402542,13,1
-13.812256,7.1685257,3.9613423,29,5
-5.1759644,3.1298523,0.21866858,14,1
-13.815491,7.1641159,4.3587866,30,4
-5.8873291,3.4669342,0.23298728,15,0
-13.816986,7.1587563,4.7616615,31,5
-6.7259216,3.8920746,0.25763249,16,0
-7.6657104,4.3401337,0.30771327,17,2
-9.0489807,5.0002518,0.33933234,18,0
-10.891022,5.8792114,0.38756573,19,0
-11.144073,5.9956055,0.68243659,20,1
-13.674072,7.2016792,0.82679081,21,1
-13.685883,7.201416,1.2180263,22,2
-13.658661,7.1825752,1.6068485,23,2
-13.67749,7.1857109,1.9941244,24,3
-13.77652,7.2270737,2.3878512,25,5
-13.757294,7.2120247,2.7773216,26,4
-4.1295471,2.6556435,0.025393248,11,0
-13.746124,7.2008133,3.1673055,27,4
-4.5948181,2.8777046,0.035223603,12,1
-13.717499,7.1812553,3.5590043,28,5
-4.671875,2.9123116,0.18022501,13,1
-13.707855,7.1707497,3.9505353,29,5
-5.1636658,3.1465836,0.21984565,14,1
-13.709595,7.1656227,4.3455272,30,4
-5.8706055,3.4839439,0.23491299,15,0
-13.714905,7.1621208,4.7468562,31,5
-6.7096863,3.9122467,0.25905252,16,0
-7.6517944,4.3646355,0.30840957,17,2
-9.0385437,5.0312004,0.3392396,18,0
-10.768921,5.8625717,0.40110433,19,0
-11.080597,6.0081482,0.68750238,20,3
-11.482056,6.196785,0.98227918,21,1
-13.584656,7.2045021,1.2223291,22,2
-13.566467,7.1898956,1.6088864,23,1
-13.581635,7.1913414,1.9942833,24,3
-13.678772,7.2321281,2.3859918,25,5
-13.656006,7.2153358,2.7732575,26,3
-4.1238098,2.6719971,0.025042772,11,0
-13.635986,7.1998367,3.1604018,27,4
-4.56427,2.8835831,0.042501688,12,0
-13.623779,7.1880379,3.5515461,28,5
-4.6462708,2.9208679,0.18543351,13,0
-13.610748,7.1758804,3.9406977,29,5
-5.1566162,3.1658249,0.2196734,14,1
-13.60556,7.1674614,4.3325534,30,4
-5.8590393,3.5034599,0.23562515,15,0
-13.616547,7.1666718,4.7327175,31,5
-6.690979,3.9329147,0.26085341,16,0
-7.642334,4.39328,0.30819213,17,2
-9.0164185,5.0587463,0.34077859,18,0
-11.407959,6.2079697,0.98683071,21,1
-13.487701,7.2122917,1.2264228,22,2
-13.464081,7.1949844,1.6111349,23,1
-13.473816,7.1938629,1.994409,24,3
-13.572632,7.2358246,2.383935,25,5
-13.550018,7.218998,2.7690196,26,3
-4.1227417,2.6918259,0.022953868,11,0
-13.539124,7.2078476,3.1547396,27,4
-4.5228271,2.8852654,0.053036213,12,0
-13.523468,7.1943588,3.5435312,28,5
-4.6340942,2.9371719,0.18669701,13,0
-13.50531,7.1796684,3.9299207,29,5
-5.1437378,3.1836281,0.22086966,14,0
-13.509338,7.1756554,4.3210616,30,4
-5.8521729,3.5267639,0.2351439,15,0
-13.515228,7.1724663,4.7182789,31,4
-6.6768188,3.9575195,0.26160109,16,0
-7.628479,4.4217377,0.30862653,17,2
-9.0005188,5.0915108,0.34127891,18,0
-10.359863,5.753994,0.44832134,19,1
-10.336945,5.7380486,0.75751495,20,4
-11.336426,6.222744,0.99115747,21,1
-12.335907,6.706646,1.2782844,22,1
-13.369537,7.2064972,1.6132436,23,1
-13.375641,7.20364,1.994638,24,3
-13.470764,7.244175,2.3820877,25,5
-13.450043,7.2281876,2.7652345,26,3
-4.1108398,2.7075691,0.024389148,11,0
-13.4375,7.2161789,3.1488109,27,4
-4.4878235,2.8911743,0.061423659,12,0
-13.418457,7.2009811,3.5351558,28,4
-4.6282959,2.9579124,0.18599749,13,0
-13.402313,7.1872025,3.9196658,29,5
-5.130188,3.2025261,0.22208428,14,0
-13.415466,7.1876526,4.310185,30,4
-5.8340149,3.5461578,0.23711073,15,0
-13.40741,7.1777191,4.702867,31,5
-6.6699524,3.9804611,0.26120913,16,0
-7.6044617,4.4392891,0.3111794,17,2
-8.9906921,5.1205368,0.3411634,18,0
-10.098785,5.6633759,0.47921371,19,0
-10.077057,5.6480408,0.78185713,20,2
-11.241241,6.2172699,0.99729884,21,1
-12.146179,6.6578293,1.2866353,22,1
-13.271637,7.2062721,1.6153693,23,1
-13.283112,7.2060814,1.9947559,24,3
-13.372772,7.244236,2.3801167,25,4
-13.355743,7.2299919,2.7614312,26,3
-4.1019897,2.7212143,0.025196195,11,0
-13.337952,7.2153778,3.1426077,27,4
-4.4508972,2.8920975,0.070842743,12,1
-13.320862,7.2010841,3.5270529,28,4
-4.6188354,2.9728889,0.18673551,13,0
-13.299591,7.1847534,3.9088006,29,4
-5.1217651,3.219677,0.22234738,14,0
-13.305908,7.181881,4.2959986,30,4
-5.8088684,3.5573235,0.24104214,15,0
-13.317688,7.1816292,4.6900196,31,5
-6.6510315,4.0009537,0.26301277,16,0
-7.5930481,4.4669342,0.3112793,17,2
-8.9718933,5.1496429,0.34217298,18,1
-11.228119,6.2574272,0.99749339,21,1
-12.273132,6.7708321,1.2805991,22,1
-13.167786,7.208889,1.6176386,23,1
-13.184601,7.2113914,1.994925,24,3
-13.275909,7.2507133,2.3783374,25,4
-13.255432,7.2346878,2.757493,26,3
-4.100769,2.7410431,0.023110867,11,0
-13.241333,7.2218475,3.1369324,27,4
-4.4112854,2.8940163,0.080831528,12,1
-13.226257,7.2084503,3.5196171,28,4
-4.6030273,2.9873466,0.18899119,13,0
-13.214081,7.1965446,3.900691,29,4
-5.1069641,3.2364769,0.2239958,14,0
-13.20813,7.1876678,4.2842035,30,5
-5.8018188,3.5805206,0.24056423,15,0
-13.214905,7.1849709,4.6752305,31,5
-6.6303711,4.0204735,0.26517594,16,0
-7.5797424,4.4936638,0.31169355,17,2
-8.9477234,5.1760178,0.34398401,18,0
-10.78299,6.0914001,0.39128053,19,0
-11.091705,6.2359467,1.0065079,21,1
-11.484375,6.4271545,1.316092,22,1
-13.065796,7.2118568,1.6198683,23,1
-13.080811,7.2135124,1.9950545,24,3
-13.175598,7.2549057,2.3764367,25,4
-3.7834778,2.6037979,-0.019331217,10,0
-13.157013,7.2397461,2.753655,26,3
-4.0823364,2.7522736,0.0268718,11,0
-13.143036,7.2269211,3.1311011,27,4
-4.3700256,2.8948593,0.091358542,12,1
-13.128113,7.2135658,3.5117817,28,4
-4.5889587,3.0026093,0.19075239,13,0
-13.11795,7.2026024,3.8911147,29,4
-5.0990906,3.2567253,0.22384632,14,0
-13.115814,7.1955795,4.2732744,30,5
-5.7929077,3.6028214,0.24049199,15,0
-13.115723,7.1895294,4.661109,31,4
-6.6168518,4.0435333,0.26516771,16,0
-7.5561218,4.5148697,0.31333518,17,2
-8.9239197,5.2018547,0.34523463,18,1
-10.790375,6.1392784,0.38828802,19,0
-10.030518,5.7511978,0.78271139,20,7
-11.022186,6.2460594,1.0104992,21,1
-11.403564,6.4329224,1.3193252,22,2
-12.963104,7.2120552,1.6220193,23,2
-12.983429,7.2164345,1.9951987,24,3
-13.072784,7.2554245,2.3744917,25,4
-3.6942139,2.5785942,0.0098124743,10,0
-13.0578,7.2420464,2.7498779,26,3
-4.0756836,2.7700615,0.0253582,11,0
-13.044006,7.2292366,3.1253777,27,4
-4.3355103,2.8995171,0.09862864,12,1
-13.031067,7.2168121,3.5042982,28,4
-4.5712585,3.016552,0.19249797,13,1
-13.024658,7.2076912,3.8822269,29,4
-5.0823975,3.272934,0.22502911,14,0
-12.808533,7.0936813,4.2274995,30,5
-5.7735291,3.6200409,0.24201822,15,0
-12.842987,7.1049614,4.6143308,31,5
-6.5925293,4.0611229,0.26804864,16,0
-7.5338745,4.5370178,0.31531441,17,2
-8.9013977,5.2289429,0.34678113,18,1
-10.750824,6.1646843,0.39149618,19,0
-10.025848,5.7914505,0.78202534,20,6
-10.937714,6.2495003,1.0157984,21,1
-11.329132,6.4428749,1.3224281,22,1
-12.87204,7.2193794,1.624032,23,2
-12.883423,7.2193069,1.9953421,24,3
-12.985168,7.2648811,2.372992,25,4
-3.6848755,2.5929337,0.010679364,10,0
-12.961365,7.2469864,2.746136,26,3
-4.0691528,2.7872696,0.025029659,11,0
-12.945923,7.2332954,3.1195374,27,4
-4.2874756,2.8964462,0.11131108,12,1
-12.940216,7.2245026,3.4972456,28,4
-4.5571289,3.0317001,0.19426024,13,1
-12.925171,7.2109795,3.8721538,29,4
-5.0744019,3.2931252,0.22488177,14,0
-12.858093,7.1712379,4.2397604,30,5
-5.7575378,3.6387291,0.24356508,15,0
-12.825348,7.1487579,4.6156616,31,5
-6.5874329,4.0885086,0.26699018,16,0
-7.5256348,4.566288,0.31479537,17,2
-8.8893738,5.2613678,0.34672987,18,1
-10.705963,6.187191,0.39536464,19,0
-10.022766,5.832634,0.78116846,20,6
-10.858673,6.2552299,1.0207109,21,1
-11.236969,6.4433594,1.3263364,22,1
-12.773987,7.2225952,1.6261784,23,2
-12.781738,7.2207336,1.9954687,24,2
-12.883362,7.2666359,2.3710186,25,4
-3.6721191,2.6054955,0.012803435,10,0
-12.868561,7.2532387,2.7425995,26,3
-4.0642395,2.8053398,0.024117947,11,0
-12.858582,7.2422714,3.1146016,27,4
-4.2634277,2.905468,0.11643517,12,1
-12.837097,7.2254028,3.4888024,28,4
-4.5429382,3.0467949,0.19602311,13,1
-12.824036,7.2128448,3.8618314,29,4
-5.0645752,3.3124084,0.22518528,14,0
-12.822571,7.2061691,4.2381015,30,5
-5.7327576,3.6528702,0.24713278,15,0
-12.828583,7.2032204,4.6210313,31,6
-6.5619812,4.1036491,0.2702086,16,0
-7.5146179,4.5921822,0.31487799,17,2
-8.8658142,5.285614,0.34851706,18,1
-10.66217,6.2073784,0.39919913,19,0
-10.020599,5.8718605,0.78028333,20,8
-10.793243,6.2648048,1.024694,21,1
-11.231354,6.4850311,1.326329,22,2
-12.673706,7.2210159,1.6283499,23,2
-12.686798,7.2219124,1.9955875,24,3
-12.791809,7.2699432,2.3692951,25,4
-3.6597595,2.6171303,0.014914036,10,0
-12.76828,7.2519798,2.7384937,26,3
-4.0445251,2.8145142,0.028449655,11,0
-12.758392,7.2410469,3.1084104,27,3
-4.2535706,2.920475,0.11722612,12,1
-12.745941,7.2287483,3.481504,28,4
-4.5292664,3.0607834,0.19777012,13,0
-12.738373,7.2189598,3.8534198,29,4
-5.0639954,3.3350067,0.22322524,14,1
-12.733612,7.2105827,4.2274065,30,5
-5.7260132,3.6746597,0.24664056,15,0
-12.725861,7.2005997,4.6058431,31,5
-6.5470276,4.1241264,0.27127874,16,0
-7.4982605,4.6153107,0.31589901,17,2
-8.8457336,5.3115883,0.34977221,18,1
-10.646515,6.2420235,0.39951527,19,0
-10.01651,5.9101944,0.77957463,20,8
-10.715424,6.2676315,1.0295662,21,1
-11.083649,6.4532127,1.3327788,22,1
-12.415466,7.1371384,1.6335671,23,1
-12.590118,7.2216949,1.9956896,24,3
-12.703949,7.2746162,2.3676853,25,4
-3.6658936,2.638382,0.010113358,10,0
-12.680481,7.2566338,2.7351201,26,3
-4.045105,2.8342323,0.025772214,11,0
-12.674286,7.247551,3.1035786,27,4
-4.2232056,2.9247513,0.12449229,12,1
-12.656677,7.2325401,3.4744,28,4
-4.508667,3.0711365,0.20149481,13,0
-12.647522,7.2219162,3.8442707,29,5
-5.049469,3.3504333,0.22486091,14,0
-12.637695,7.2109299,4.2155457,30,4
-5.7226562,3.6982498,0.24534249,15,0
-12.644257,7.2082863,4.5946875,31,6
-6.53302,4.1468658,0.27201426,16,0
-7.4845276,4.641777,0.31632161,17,2
-8.828186,5.3411255,0.35052502,18,1
-10.645538,6.2870293,0.3978889,19,0
-10.013031,5.9514771,0.77872729,20,8
-10.916199,6.4181175,1.0143552,21,2
-11.032562,6.4735985,1.3348209,22,2
-12.48642,7.2261581,1.632443,23,1
-12.497681,7.2261925,1.9958625,24,3
-12.606018,7.2767029,2.3658159,25,4
-3.6429138,2.6455345,0.016009092,10,0
-12.589752,7.2623711,2.7316761,26,3
-4.0332642,2.8486977,0.027199626,11,0
-12.583649,7.2533226,3.0983276,27,4
-4.1889038,2.9280777,0.13285184,12,1
-12.566223,7.2383385,3.4673305,28,4
-4.4994812,3.0887566,0.20177603,13,0
-12.555481,7.2268639,3.8351569,29,5
-5.0411987,3.3705521,0.22471857,14,0
-12.547668,7.2168655,4.2048817,30,4
-5.7047424,3.7158089,0.24729621,15,0
-12.545715,7.2098427,4.5805387,31,5
-6.5269165,4.175518,0.27098429,16,0
-7.4716187,4.6706696,0.3164587,17,2
-8.8060608,5.3705406,0.35184002,18,1
-10.620453,6.3221283,0.39915621,19,0
-10.008423,5.9947701,0.77791536,20,7
-10.828827,6.421505,1.0198103,21,1
-10.939606,6.474514,1.3387483,22,0
-12.389282,7.2306824,1.6345751,23,0
-12.405823,7.2335434,1.9960821,24,3
-12.514008,7.2844086,2.3642168,25,4
-3.636261,2.6623688,0.015636683,10,0
-12.497864,7.27005,2.728267,26,3
-4.0259705,2.8667603,0.026891351,11,0
-12.484802,7.2573318,3.092504,27,4
-4.1320496,2.9204712,0.14823759,12,1
-12.469299,7.2433014,3.4597006,28,4
-4.4949036,3.1100845,0.2005924,13,0
-12.46933,7.2374039,3.8270555,29,6
-5.0305786,3.3908653,0.22504473,14,0
-12.452972,7.222908,4.1936703,30,4
-5.6964722,3.7400284,0.24684834,15,0
-12.458282,7.2196655,4.5687804,31,5
-6.5152283,4.1977234,0.27134252,16,0
-7.4463501,4.6890106,0.31904316,17,2
-8.7962952,5.4018784,0.35150266,18,1
-10.009247,6.035984,0.77669561,20,6
-10.742065,6.4192276,1.0253196,21,2
-10.85611,6.4743767,1.3422799,22,1
-12.31424,7.2401733,1.6362507,23,2
-12.321869,7.2384033,1.9962571,24,3
-12.424652,7.2867851,2.3625355,25,4
-3.6288147,2.6765175,0.015865088,10,0
-12.410339,7.2733498,2.7248814,26,3
-4.0213623,2.8837891,0.025969744,11,0
-12.400909,7.2625122,3.0876608,27,4
-4.0847778,2.9151459,0.16089189,12,1
-12.38205,7.2466469,3.4527822,28,4
-4.4793701,3.1229744,0.20283556,13,0
-12.377014,7.2380714,3.8176498,29,6
-5.0210876,3.4088821,0.2253356,14,0
-12.371399,7.2291679,4.1841216,30,4
-5.6756287,3.7543945,0.24959111,15,0
-12.368225,7.2214737,4.5559306,31,5
-6.4923096,4.2157021,0.27387035,16,0
-7.4289246,4.7134552,0.32009363,17,2
-8.7767029,5.4303207,0.35252607,18,1
-10.273499,6.2255783,0.43913388,19,2
-10.005341,6.0773621,0.77585816,20,6
-10.74231,6.4655876,1.0245064,21,1
-10.813904,6.4985046,1.3439138,22,0
-12.227356,7.2460403,1.6381656,23,1
-12.231476,7.2424088,1.9964296,24,3
-12.335876,7.2920418,2.3609481,25,4
-3.6208496,2.6915283,0.016108513,10,0
-12.323425,7.279541,2.7216361,26,3
-4.0060425,2.8963432,0.028566957,11,0
-12.308838,7.2659225,3.0822444,27,4
-4.0574646,2.9214668,0.16708827,12,0
-12.29364,7.2519455,3.4458983,28,4
-4.4649658,3.1377411,0.20460176,13,0
-12.278259,7.2378654,3.8075447,29,5
-5.0143738,3.4298553,0.2247479,14,0
-12.274658,7.2300034,4.1722817,30,4
-5.6592712,3.7726822,0.25114346,15,0
-12.283936,7.2289009,4.5444622,31,5
-6.4804993,4.2378082,0.2742306,16,0
-7.4191895,4.740036,0.31987274,17,2
-8.7563171,5.4559669,0.35378754,18,1
-10.187805,6.2214966,0.44822454,19,0
-9.9971008,6.1139565,0.77551138,20,6
-11.003784,6.6496544,1.0048714,21,1
-10.719971,6.4919701,1.3479207,22,1
-12.145386,7.2509918,1.6399703,23,1
-12.149475,7.2473602,1.9966094,24,3
-12.248444,7.2944717,2.3593175,25,4
-3.6149902,2.7065353,0.015710473,10,0
-12.232544,7.2800865,2.7180309,26,4
-3.9743652,2.8987694,0.036985874,11,0
-12.223328,7.2693062,3.0772414,27,4
-4.0306396,2.9267044,0.17326832,12,1
-12.199585,7.2506676,3.4381776,28,4
-4.4612732,3.1569595,0.20338798,13,0
-12.200165,7.2450562,3.8000877,29,6
-5.0013123,3.4459839,0.22593868,14,0
-12.191467,7.2344933,4.1624341,30,4
-5.6521606,3.7943192,0.25065875,15,0
-12.192322,7.2289009,4.5312672,31,5
-6.4703674,4.2608109,0.27423441,16,0
-7.3920288,4.7571945,0.32277071,17,2
-8.7427673,5.4853287,0.3539871,18,0
-9.9992065,6.1562386,0.77412796,20,8
-10.81311,6.5912666,1.0178735,21,2
-10.705292,6.5277023,1.3483143,22,2
-11.957886,7.1985397,1.6437981,23,2
-12.055237,7.2452698,1.9966972,24,3
-12.154083,7.2926788,2.3574455,25,4
-3.6123962,2.723362,0.014057755,10,0
-12.150574,7.2849159,2.7149501,26,4
-3.942749,2.9010506,0.045403481,11,0
-12.134491,7.2703743,3.0719304,27,4
-4.0258179,2.9437866,0.17243993,12,0
-12.124908,7.259285,3.4326375,28,5
-4.4439392,3.168766,0.20612657,13,0
-12.108124,7.2443619,3.790669,29,6
-4.9985352,3.4676552,0.22443736,14,0
-12.09967,7.2338982,4.1511283,30,4
-5.6432495,3.8150177,0.25057888,15,0
-12.106018,7.2312469,4.5190787,31,6
-6.4542236,4.2823372,0.27533472,16,0
-7.3848267,4.7871246,0.32195449,17,2
-8.7246704,5.5145264,0.35474885,18,1
-10.008636,6.210228,0.46730208,19,2
-10.001923,6.2015228,0.7726078,20,5
-10.784698,6.6227417,1.019104,21,2
-10.689392,6.565506,1.3487449,22,2
-11.95578,7.2486534,1.6440791,23,2
-11.977417,7.2545853,1.9969459,24,3
-12.067352,7.2975235,2.3559048,25,4
-3.5976562,2.7346687,0.016814947,10,0
-12.062164,7.2888298,2.711587,26,4
-3.912323,2.9050217,0.053251624,11,0
-12.051422,7.2771492,3.0672626,27,4
-4.00354,2.9525566,0.17701781,12,0
-12.035004,7.2623024,3.4255428,28,5
-4.4429932,3.1908417,0.20394421,13,0
-12.025421,7.2512054,3.7827535,29,6
-4.9813843,3.4829674,0.22654581,14,0
-12.015442,7.2398682,4.1413112,30,4
-5.630188,3.8350449,0.25132728,15,0
-12.021973,7.2373695,4.5075989,31,6
-6.431366,4.3002396,0.27712762,16,0
-7.3587646,4.8066063,0.32391894,17,2
-8.7053223,5.5424385,0.35521722,18,1
-10.151184,6.3315735,0.44722426,19,0
-10.80603,6.6802368,1.0164987,21,2
-10.688141,6.6102638,1.3483427,22,2
-11.884247,7.2594185,1.6456027,23,3
-11.888306,7.2558136,1.9970888,24,2
-11.981659,7.3009338,2.3544405,25,6
-3.5892639,2.7503815,0.015792012,10,0
-11.973022,7.2903404,2.7082868,26,5
-3.8766785,2.9067955,0.061666608,11,0
-11.969421,7.282505,3.0628567,27,7
-3.9963074,2.9703217,0.17565191,12,0
-11.942627,7.2619705,3.4184051,28,5
-4.4266052,3.205143,0.2052027,13,0
-11.948944,7.2594795,3.776021,29,8
-4.9675903,3.500618,0.22684157,14,0
-11.93045,7.2434769,4.131743,30,4
-5.6206055,3.8573074,0.25044334,15,0
-11.925049,7.23452,4.4940534,31,6
-6.4126587,4.3220558,0.27860963,16,0
-7.3453674,4.8351555,0.32406592,17,2
-8.6896057,5.5752106,0.35548043,18,1
-10.246033,6.4314194,0.43336689,19,0
-10.880096,6.7765579,0.68260217,20,1
-10.739532,6.6935196,1.0204287,21,1
-10.744293,6.6907082,1.3454572,22,2
-11.719513,7.2229309,1.649011,23,2
-11.807587,7.2656631,1.9973561,24,2
-11.965637,7.3467522,2.3553767,25,8
-3.5855713,2.7689323,0.014171362,10,0
-11.96402,7.3399506,2.7098317,26,7
-3.8407898,2.9085884,0.071277738,11,0
-11.949921,7.3262978,3.0638576,27,7
-3.98526,2.9864311,0.17647421,12,0
-11.930176,7.3094788,3.4202931,28,9
-4.414856,3.2226028,0.206002,13,0
-11.94339,7.310791,3.7791657,29,9
-4.954895,3.5197716,0.22762406,14,0
-11.843353,7.2499657,4.1216655,30,4
-5.6067505,3.8784943,0.2512145,15,0
-11.839935,7.2420692,4.4826035,31,6
-6.4040222,4.3458633,0.27826095,16,1
-7.3301086,4.8586807,0.32478654,17,2
-8.6687927,5.6005592,0.35674858,18,1
-10.415649,6.5684204,0.41025543,19,1
-11.985931,7.4365807,0.57152367,20,2
-10.670227,6.6993103,1.0246651,21,1
-10.854828,6.7964134,1.3401155,22,3
-11.70105,7.2605095,1.6495892,23,2
-11.722534,7.2666168,1.9974911,24,2
-11.966003,7.3956299,2.3567157,25,8
-3.571228,2.779232,0.016915679,10,0
-11.959137,7.385891,2.7114086,26,7
-3.8093262,2.9102249,0.07968986,11,0
-11.946838,7.3731232,3.0660028,27,8
-3.9685059,2.9968567,0.17942035,12,0
-11.932343,7.3590851,3.4235001,28,9
-4.4041443,3.2379723,0.20676816,13,0
-11.948975,7.3622894,3.7834632,29,9
-4.9518433,3.5414009,0.2261281,14,1
-11.76413,7.2542725,4.112381,30,4
-5.5924377,3.8962326,0.25234878,15,0
-11.760925,7.2464905,4.4717479,31,6
-6.3866882,4.3648415,0.27969933,16,1
-7.3216553,4.8860321,0.32426286,17,2
-8.6652222,5.6355247,0.35536397,18,1
-10.431946,6.6209068,0.40643132,19,1
-10.758575,6.7984428,0.69204307,20,1
-10.606171,6.7077026,1.0285192,21,1
-10.816589,6.8199081,1.3415672,22,4
-11.647522,7.2785454,1.6508366,23,3
-11.644531,7.2710609,1.9976743,24,2
-11.95752,7.4397049,2.35776,25,8
-3.565094,2.7941475,0.016523004,10,0
-11.959381,7.4347725,2.7133079,26,7
-3.7811279,2.9135857,0.086933732,11,1
-11.947083,7.4219208,3.0684566,27,11
-3.9701843,3.0176086,0.17644167,12,0
-11.934296,7.4087639,3.4267113,28,9
-4.39505,3.2542686,0.20704162,13,0
-11.938721,7.4051971,3.7855577,29,8
-4.9402466,3.5582619,0.22687554,14,1
-11.681519,7.2562714,4.10251,30,5
-5.5866699,3.9187241,0.2514689,15,0
-11.680267,7.2495651,4.4605513,31,6
-6.3761597,4.3876305,0.27971017,16,1
-7.3045349,4.9085121,0.32529712,17,2
-8.6425171,5.6597977,0.3569001,18,1
-10.399536,6.6461906,0.4087404,19,0
-10.673584,6.7952538,0.69917786,20,1
-10.578674,6.736351,1.0297167,21,1
-10.800964,6.8559837,1.3419831,22,3
-11.519043,7.2541962,1.6535137,23,2
-11.563171,7.2731514,1.9978279,24,2
-11.962799,7.4916153,2.3592863,25,8
-3.555603,2.8071785,0.017385721,10,1
-11.957703,7.4827309,2.7151046,26,7
-3.7463684,2.9130363,0.096509337,11,0
-11.947113,7.470787,3.0709147,27,8
-3.958374,3.0307922,0.17777312,12,0
-11.939575,7.460453,3.4303248,28,10
-4.3842773,3.269577,0.20780945,13,0
-11.931824,7.4500465,3.788146,29,5
-4.9285889,3.5750885,0.22762382,14,1
-11.59726,7.2569084,4.0923443,30,5
-5.5739746,3.9373436,0.25220203,15,0
-11.594513,7.2493668,4.4483385,31,6
-6.3631287,4.4107742,0.28010249,16,2
-7.289917,4.9344063,0.32573593,17,2
-8.6067505,5.6788788,0.36032355,18,1
-10.35556,6.6675072,0.4123975,19,0
-10.833588,6.9333916,0.68183661,20,3
-10.694031,6.8487015,1.0204682,21,1
-10.74234,6.8705025,1.3443474,22,2
-11.455688,7.2688484,1.6549592,23,2
-11.482269,7.2780838,1.9980289,24,2
-11.90918,7.5134811,2.3588772,25,6
-3.5406494,2.8182106,0.020145535,10,1
-11.898895,7.5016403,2.7135406,26,7
-3.716156,2.9160538,0.10434937,11,0
-11.886658,7.4887047,3.0682244,27,7
-3.9544067,3.0496445,0.17642844,12,1
-11.88266,7.4803314,3.4270077,28,7
-4.3728638,3.2858696,0.20859504,13,0
-11.864624,7.4641037,3.7824326,29,4
-4.9196472,3.5949135,0.22749519,14,1
-11.513519,7.2603455,4.0825033,30,5
-5.5588684,3.9561768,0.25335968,15,0
-11.517944,7.2567825,4.4381852,31,6
-6.3441162,4.4323082,0.28158963,16,2
-7.2640991,4.9558907,0.32806861,17,2
-8.5527039,5.6897011,0.3664273,18,2
-10.310394,6.6906776,0.41608918,19,0
-10.747711,6.9352722,0.68887413,20,3
-10.636108,6.8659096,1.0237659,21,1
-10.66861,6.8789291,1.3473818,22,2
-11.406677,7.2943535,1.656143,23,3
-11.39679,7.2828484,1.9982376,24,2
-11.864624,7.5433388,2.3588667,25,5
-3.5334473,2.8347855,0.019784808,10,1
-11.854401,7.5314674,2.7129731,26,6
-3.6820984,2.9179077,0.11336911,11,0
-11.837036,7.5155296,3.0666413,27,7
-3.933075,3.0598335,0.18048537,12,0
-11.827911,7.5042152,3.4241271,28,8
-4.3675232,3.3069992,0.20742583,13,0
-11.784119,7.4732704,3.7750378,29,4
-4.9049072,3.612915,0.22873116,14,1
-11.433807,7.2685013,4.0735712,30,6
-5.5514832,3.9810524,0.25252545,15,0
-11.434967,7.263134,4.427053,31,5
-6.3317261,4.4540024,0.28196096,16,2
-7.2451172,4.9771843,0.32941687,17,2
-8.5556946,5.7284355,0.363989,18,2
-10.252075,6.7006111,0.42167759,19,0
-10.657501,6.9284897,0.69652414,20,3
-10.483643,6.822937,1.0340526,21,1
-10.602539,6.885746,1.3501028,22,2
-11.306488,7.2842903,1.6582732,23,2
-11.317383,7.2847137,1.9983926,24,2
-3.2194824,2.6734924,-0.0031638145,9,0
-11.813995,7.5634155,2.3584769,25,2
-3.5205688,2.8457985,0.021903634,10,1
-11.845428,7.5753326,2.7143507,26,1
-3.6573486,2.9225922,0.11944234,11,0
-11.824615,7.5573311,3.0680366,27,1
-3.9145203,3.0690231,0.18397188,12,1
-11.744629,7.5054703,3.4175766,28,5
-4.349884,3.3183289,0.21016872,13,0
-11.697632,7.4725189,3.7663331,29,4
-4.8930969,3.629631,0.22948182,14,0
-11.35498,7.2708282,4.0642681,30,6
-5.5318909,3.995636,0.25487232,15,0
-11.352936,7.2636261,4.415504,31,6
-6.3158264,4.4736977,0.28304696,16,2
-7.2380066,5.0053711,0.32858956,17,2
-8.5773621,5.7781868,0.35863924,18,1
-10.210938,6.7202415,0.42507899,19,0
-10.612244,6.947216,0.69968867,20,3
-10.464508,6.8561363,1.0346237,21,1
-10.565948,6.9092522,1.3514725,22,1
-11.180481,7.258728,1.6608918,23,2
-11.245026,7.290184,1.9985979,24,2
-3.2006226,2.6798439,0.0017586946,9,0
-11.72699,7.562294,2.3568208,25,2
-3.5158691,2.8615532,0.020887375,10,1
-11.84668,7.6251984,2.7163715,26,1
-3.6243896,2.9223442,0.12842846,11,0
-11.815521,7.6011162,3.0697403,27,0
-3.8976135,3.0791016,0.18691969,12,0
-11.65979,7.5053215,3.4108229,28,4
-4.3439636,3.336422,0.20946014,13,0
-11.613007,7.4723358,3.7578695,29,4
-4.886322,3.6492348,0.2288897,14,1
-11.279663,7.2747345,4.0555449,30,5
-5.5190125,4.0140877,0.25560915,15,0
-11.270996,7.2637253,4.4039502,31,5
-6.3000183,4.4970207,0.28382409,16,2
-7.2137146,5.0275879,0.33061397,17,2
-8.572876,5.8176003,0.35706341,18,2
-10.153717,6.7357254,0.43029773,19,0
-10.485352,6.9237404,0.71084785,20,3
-10.432556,6.887394,1.0360239,21,1
-11.058777,7.2465439,1.32851,22,2
-11.167938,7.3042564,1.6613773,23,3
-11.158051,7.2926598,1.9987811,24,3
-3.1937866,2.6953659,0.0013390779,9,0
-11.637451,7.5652885,2.3552392,25,2
-3.5052185,2.8761444,0.021783352,10,1
-11.741425,7.6195831,2.7120731,26,0
-3.5970459,2.9275703,0.135113,11,0
-11.722534,7.6024857,3.0643339,27,0
-3.8829346,3.0929184,0.18882346,12,0
-11.580994,7.514267,3.4051409,28,4
-4.3284302,3.3516159,0.21125245,13,0
-11.525879,7.4762421,3.7494802,29,5
-4.8731384,3.6681023,0.22968042,14,1
-11.200195,7.2816696,4.0466018,30,6
-5.514801,4.0408592,0.25397384,15,0
-11.198608,7.2746925,4.394834,31,6
-6.291626,4.5192528,0.28346241,16,2
-7.2022095,5.0512047,0.33069611,17,2
-8.5678406,5.8497963,0.35592926,18,1
-10.11203,6.7519302,0.43388081,19,0
-10.417358,6.9256516,0.71638131,20,3
-10.331848,6.8699265,1.0426036,21,1
-11.093201,7.3104782,1.3266226,22,2
-11.086609,7.3007698,1.6631277,23,2
-11.090546,7.297226,1.9989688,24,3
-3.1948242,2.7122841,-0.0018059015,9,0
-11.558899,7.5650635,2.3537765,25,2
-3.500946,2.8910141,0.020754218,10,1
-11.654175,7.614624,2.708504,26,0
-3.5629883,2.9251518,0.14466357,11,0
-11.661224,7.6126137,3.061254,27,1
-3.8864136,3.1136856,0.18529868,12,0
-11.501068,7.5130463,3.3987393,28,4
-4.3262939,3.370636,0.20954287,13,0
-11.444489,7.4739647,3.741215,29,5
-4.8668823,3.6865768,0.2290715,14,1
-11.121185,7.2796631,4.0369573,30,5
-5.497467,4.0550537,0.25589931,15,0
-11.123199,7.2747955,4.3842492,31,6
-6.2722168,4.5367775,0.28526402,16,2
-7.1880798,5.0752945,0.33111644,17,2
-8.5480652,5.8756714,0.35694528,18,2
-10.05719,6.7628899,0.43902624,19,0
-10.279907,6.8834267,1.0455654,21,1
-10.409973,6.9545593,1.3576742,22,1
-10.928375,7.2543983,1.6663493,23,2
-11.021851,7.3036499,1.9991916,24,3
-3.171051,2.7155685,0.0051299334,9,0
-11.468781,7.5606384,2.3519864,25,2
-3.4798279,2.8970108,0.026008964,10,1
-11.500214,7.5730629,2.7009082,26,1
-3.5433044,2.9322548,0.14898491,11,0
-11.512634,7.5742455,3.0505509,27,1
-3.8661499,3.1216393,0.18932354,12,0
-11.411346,7.5086517,3.3913736,28,3
-4.3118896,3.3837395,0.2113018,13,0
-11.372162,7.4795685,3.7344604,29,6
-4.8464966,3.698185,0.23206425,14,1
-11.042725,7.2804489,4.0276389,30,6
-5.487793,4.0753937,0.25583434,15,0
-11.039856,7.2727318,4.3723459,31,6
-6.2607117,4.5646973,0.28426278,16,2
-7.1647339,5.0999794,0.33221173,17,2
-9.9824829,6.7689629,0.44598544,19,0
-10.2677,6.9331512,0.72809875,20,2
-10.165161,6.8666153,1.0527446,21,1
-10.923767,7.311554,1.3335257,22,2
-10.930878,7.3099213,1.6664741,23,3
-10.933044,7.3053741,1.9993765,24,3
-3.1584473,2.7298813,0.0053837299,9,0
-3.4487305,2.9015427,0.033173323,10,1
-3.5332947,2.9496765,0.14809382,11,0
-3.8505554,3.137104,0.19015324,12,0
-11.33075,7.5168114,3.3858805,28,3
-4.2988281,3.4025612,0.21112525,13,0
-11.284882,7.4836502,3.7265501,29,5
-4.8375244,3.7216682,0.23061955,14,1
-10.963043,7.2876511,4.0192685,30,6
-5.4692383,4.0958481,0.25661743,15,0
-10.958679,7.2790337,4.362205,31,7
-6.2437439,4.5854874,0.28537738,16,2
-7.1495972,5.1254692,0.33266103,17,2
-8.4638672,5.9095955,0.36489213,18,4
-9.9572449,6.799736,0.44723594,19,0
-10.219727,6.9514313,0.73145998,20,3
-10.084747,6.8650818,1.0577456,21,1
-10.775085,7.2722397,1.3400079,22,2
-10.847321,7.3095779,1.6682881,23,3
-10.852936,7.3070755,1.9995471,24,3
-3.1503296,2.7435188,0.0056241751,9,0
-11.281097,7.5565567,2.3485088,25,4
-3.4254761,2.9072037,0.03906846,10,1
-11.288605,7.5549393,2.6922238,26,5
-3.5228882,2.9634323,0.14893615,11,0
-11.275452,7.5410538,3.035212,27,4
-3.8395996,3.1517944,0.19096732,12,0
-11.248474,7.5188484,3.3795447,28,2
-4.2937317,3.4225693,0.20994711,13,0
-11.213104,7.4917259,3.7200742,29,6
-4.8247681,3.7392654,0.23139489,14,1
-10.885223,7.2908173,4.0102725,30,6
-5.4587402,4.1173286,0.25657618,15,0
-10.886108,7.2853317,4.3526993,31,8
-6.2309265,4.6069145,0.28575695,16,2
-7.1335449,5.148407,0.3333956,17,2
-8.4897461,5.9628258,0.35877061,18,2
-9.9075623,6.8130379,0.45172274,19,0
-10.14566,6.9510193,0.73753297,20,3
-10.022766,6.8714409,1.0614518,21,1
-10.758118,7.3083076,1.3404524,22,2
-10.734283,7.2881203,1.6706432,23,3
-10.781006,7.3103638,1.999732,24,3
-3.1426392,2.7563438,0.0058511496,9,0
-11.211945,7.5631065,2.3474331,25,3
-3.3994751,2.909935,0.046200871,10,1
-11.315369,7.6190605,2.6958504,26,1
-3.49823,2.96735,0.15500414,11,0
-11.267975,7.5845528,3.037065,27,1
-3.8275146,3.1645164,0.19230366,12,0
-11.164185,7.5162277,3.3727658,28,2
-4.2774963,3.4345512,0.21220064,13,0
-11.139282,7.4952202,3.7130632,29,6
-4.8126526,3.7557335,0.23215175,14,1
-10.8172,7.2965431,4.0026965,30,6
-5.4455566,4.1355591,0.25731897,15,0
-10.811554,7.2871208,4.3424759,31,8
-6.2213745,4.6303596,0.28542531,16,2
-7.1157532,5.1702614,0.33444166,17,2
-8.4815369,5.9956589,0.35794151,18,1
-9.8562012,6.8250771,0.45642602,19,0
-9.959259,6.8820419,0.75493562,20,2
-9.9523315,6.8723297,1.0657825,21,1
-10.173523,7.0006981,1.3670335,22,0
-10.69162,7.3085365,1.6716659,23,3
-10.712616,7.3153687,1.9999417,24,3
-3.13974,2.7720909,0.0040667057,9,0
-11.132568,7.5631218,2.3459895,25,3
-3.3702393,2.9105721,0.054585218,10,1
-11.196564,7.5956612,2.6903682,26,1
-3.4801636,2.9751434,0.15874255,11,1
-11.198944,7.5909958,3.0333929,27,1
-3.820282,3.1802139,0.19202757,12,0
-11.093689,7.5214119,3.3675838,28,3
-4.2662659,3.449482,0.21297669,13,0
-11.05368,7.491188,3.7043252,29,7
-4.803833,3.7741814,0.23201478,14,1
-10.737396,7.2948074,3.9930711,30,6
-5.4406738,4.1588402,0.25605261,15,0
-10.743805,7.2926064,4.3336029,31,9
-6.211792,4.6537781,0.28509545,16,1
-7.0979309,5.1920586,0.33548844,17,3
-8.4681702,6.0253944,0.35790741,18,1
-9.7726135,6.8171921,0.46526659,19,0
