x,y,z,ring,intensity
13.893784,4.5213623,0.41779602,5,9
47.783707,17.676727,10.634413,13,19
17.87851,6.0652161,0.59501636,6,6
47.817307,17.675751,12.450186,14,24
27.411942,9.7662659,0.85813737,7,9
6.8762512,1.7758484,0.11291134,0,10
27.741653,9.833313,1.8389273,8,9
7.5995331,2.0541077,0.14602721,1,8
27.762161,9.8333435,2.8322124,9,30
8.467865,2.3866272,0.19923329,2,11
27.791153,9.8313904,3.8297124,10,9
9.6956329,2.8587341,0.247913,3,12
47.846542,17.551727,7.0785494,11,24
11.347946,3.4919739,0.32324004,4,8
47.868301,17.536957,8.8508434,12,23
13.883102,4.4663086,0.42083299,5,9
47.930984,17.54718,10.649925,13,19
17.852615,5.9883423,0.59852076,6,9
47.985916,17.554352,12.473827,14,24
27.424942,9.6661682,0.85875213,7,9
6.8766937,1.7532349,0.1150701,0,10
27.788437,9.7449951,1.8386865,8,4
7.6063385,2.0310364,0.14645541,1,8
27.827591,9.7521667,2.8330781,9,10
8.4757843,2.3605347,0.19958591,2,11
27.837906,9.742981,3.8303096,10,9
9.7015228,2.8269348,0.24888313,3,10
47.957169,17.407654,7.0835485,11,24
11.361542,3.4565125,0.32315099,4,8
48.037918,17.415344,8.8665199,12,23
13.874069,4.4120789,0.42366326,5,9
48.008011,17.390198,10.652287,13,19
17.841324,5.91745,0.60090542,6,9
48.084763,17.40564,12.481716,14,24
27.452499,9.5717773,0.85880673,7,9
48.185318,17.420593,14.349337,15,33
6.8842468,1.7333984,0.11502123,0,10
27.894791,9.6791382,1.8384175,8,9
7.6130371,2.0079651,0.14688516,1,6
27.930222,9.6847839,2.8353243,9,20
8.4799652,2.3330383,0.20077419,2,11
27.95726,9.6872864,3.8364615,10,9
9.7054291,2.7944641,0.25020385,3,10
48.100906,17.275665,7.0923009,11,24
11.367569,3.4182434,0.32418168,4,8
48.13002,17.273071,8.8711319,12,23
13.872238,4.3608093,0.42565644,5,9
48.154526,17.259308,10.667816,13,19
17.809982,5.8425293,0.60470736,6,9
48.212418,17.267426,12.49625,14,25
27.505936,9.4871826,0.85787523,7,9
48.243973,17.265533,14.348961,15,33
6.8895569,1.7138367,0.11552846,0,10
27.973068,9.6074829,1.8381796,8,4
7.6174164,1.9853516,0.14780402,1,6
27.997269,9.6088562,2.8363495,9,10
8.4872284,2.3081665,0.20113337,2,11
28.039139,9.6168823,3.8398495,10,9
9.7141876,2.765564,0.25048494,3,12
48.200211,17.135803,7.0965075,11,24
11.372833,3.3817444,0.32521939,4,8
48.232864,17.134491,8.8774185,12,23
13.860077,4.3083191,0.42870891,5,7
48.301315,17.137177,10.684069,13,20
17.793259,5.773468,0.60738897,6,9
48.365982,17.147675,12.51745,14,25
27.54982,9.4040833,0.8572439,7,9
48.36763,17.134674,14.365974,15,33
6.9020081,1.6969604,0.11382747,0,10
28.066177,9.5409851,1.8379382,8,5
7.6290131,1.9653625,0.14678454,1,6
28.075272,9.5367737,2.8377922,9,20
8.4797211,2.2778625,0.20482945,2,11
28.111404,9.5372009,3.8424013,10,9
9.713623,2.7331848,0.25250983,3,12
48.321487,17.003723,7.103219,11,24
11.366806,3.341095,0.32793593,4,8
48.375443,17.000946,8.8892403,12,23
13.875656,4.2663574,0.42861211,5,7
48.39238,16.993805,10.689941,13,20
17.784836,5.7044678,0.60950541,6,8
48.489243,17.006744,12.531174,14,25
27.593521,9.3208618,0.85661793,7,9
48.544998,17.013763,14.396496,15,33
6.89711,1.6713867,0.11764657,0,10
28.134537,9.4596863,1.8377063,8,10
7.6249542,1.9371033,0.15012598,1,8
28.160355,9.4562683,2.8393559,9,30
8.48909,2.2524109,0.20477223,2,11
28.194656,9.4612732,3.845789,10,19
9.7214203,2.7006226,0.25313628,3,12
48.478348,16.865509,7.1132293,11,24
11.387314,3.3083191,0.32673848,4,8
48.465622,16.847565,8.8933086,12,23
13.838577,4.2000732,0.43460298,5,9
48.551956,16.856506,10.707558,13,20
17.761124,5.630127,0.61275148,6,8
48.567978,16.84903,12.534956,14,25
27.602737,9.2145081,0.85739547,7,9
48.608322,16.841034,14.396112,15,33
6.8971405,1.6488342,0.11981249,0,10
28.219437,9.3787537,1.8374612,8,10
7.6404266,1.9172974,0.14813697,1,12
28.254776,9.3840332,2.8413486,9,31
8.5025177,2.2270203,0.20388007,2,11
28.271896,9.3774414,3.8486183,10,19
9.717453,2.6654663,0.2558589,3,12
48.628067,16.733276,7.1228523,11,24
11.393448,3.26828,0.32777536,4,8
48.588058,16.69632,8.9018059,12,23
13.832199,4.1477966,0.43702984,5,9
48.637711,16.701141,10.712049,13,20
17.741898,5.5545349,0.61571455,6,8
48.723495,16.718872,12.556166,14,25
27.65123,9.1277771,0.85662949,7,9
6.9115601,1.6315613,0.11756086,0,10
28.294815,9.2993164,1.8372366,8,10
7.6339417,1.8895569,0.15196908,1,12
28.337662,9.3072815,2.8429344,9,31
8.5061798,2.1995544,0.20507693,2,11
28.369736,9.3059998,3.8531244,10,19
9.7133331,2.6304016,0.25858378,3,12
48.717514,16.578796,7.1258321,11,24
11.395096,3.2286377,0.32937753,4,8
48.740616,16.564728,8.9153194,12,23
13.816223,4.0922852,0.44051063,5,9
48.778671,16.565247,10.726934,13,20
17.710037,5.4779968,0.61953247,6,5
48.83812,16.573395,12.568262,14,25
27.654251,9.0246582,0.8575722,7,9
48.91008,16.576569,14.443687,15,33
6.9223175,1.6128845,0.11641502,0,10
28.381332,9.2235413,1.8370111,8,10
7.6346588,1.8644714,0.15386295,1,12
28.424179,9.2313538,2.8446631,9,31
8.5189667,2.175293,0.20419109,2,11
28.441086,9.2246399,3.8556988,10,19
9.7202148,2.5993347,0.25922012,3,12
48.881454,16.450409,7.1371379,11,24
11.392807,3.1877747,0.3315413,4,8
48.859238,16.420349,8.9238548,12,23
13.818771,4.0435791,0.44189286,5,9
48.941544,16.436462,10.745985,13,20
17.681595,5.4030457,0.62307358,6,8
48.952286,16.427307,12.580368,14,25
27.713455,8.9416199,0.85639262,7,9
48.968887,16.410828,14.443354,15,33
6.9257507,1.5916138,0.11748028,0,10
28.460098,9.1445923,1.8367954,8,10
7.6425934,1.8420105,0.15381849,1,12
28.495377,9.1496582,2.8458486,9,31
8.5095215,2.1432495,0.20831048,2,8
28.538528,9.1521606,3.8602157,10,19
9.7232819,2.5669861,0.26055551,3,12
49.01503,16.310608,7.1451278,11,24
11.401596,3.1508484,0.33203053,4,8
48.951248,16.266174,8.9285202,12,23
13.813614,3.9923096,0.44411922,5,9
49.025955,16.27948,10.750507,13,20
17.645309,5.3257141,0.62718189,6,8
49.099289,16.292236,12.599949,14,25
27.71196,8.8372192,0.85749018,7,9
6.9181976,1.5665588,0.12186134,0,10
28.546219,9.0678406,1.836581,8,5
7.646759,1.8182068,0.15474558,1,12
28.56636,9.0675964,2.8470395,9,20
8.5073395,2.1138916,0.21076381,2,11
28.630417,9.08255,3.8644705,10,10
9.7336273,2.5372009,0.260499,3,12
49.095596,16.151886,7.1473069,11,24
11.41774,3.1165466,0.33140421,4,5
49.099808,16.140656,8.9420815,12,23
13.800735,3.9384766,0.44718957,5,9
49.135941,16.131134,10.759886,13,20
17.619034,5.2555542,0.63045597,6,8
49.201553,16.141052,12.609589,14,25
27.759232,8.7498779,0.85674858,7,9
6.9211273,1.5463257,0.12293112,0,10
28.6418,8.9992981,1.8363736,8,5
7.659668,1.7987061,0.15325105,1,8
28.658127,8.9976807,2.8490686,9,10
8.5231171,2.0921936,0.20905137,2,11
28.69191,9.0021057,3.8665175,10,10
9.7285004,2.5037842,0.26323485,3,12
49.240524,16.024261,7.1569948,11,25
11.436905,3.0851746,0.33022416,4,5
49.22554,16.006561,8.9523239,12,23
13.794418,3.8896179,0.44942629,5,9
49.223953,15.984161,10.765827,13,20
17.588669,5.1842957,0.63401544,6,8
49.341171,16.011566,12.628376,14,25
27.812149,8.6695251,0.85573721,7,9
6.9276123,1.5273132,0.12289739,0,10
28.706955,8.9198914,1.8361906,8,10
7.6633148,1.776001,0.15418303,1,6
28.734573,8.9222107,2.8505538,9,10
8.5369415,2.0697632,0.20775723,2,11
28.762344,8.9191284,3.8691144,10,10
9.7306976,2.4729309,0.26457882,3,12
49.336136,15.879333,7.1612878,11,25
11.440964,3.0487061,0.33128273,4,5
49.383774,15.873688,8.9669962,12,23
13.787918,3.8408203,0.45166588,5,9
49.382401,15.860748,10.784931,13,20
17.540085,5.1040955,0.63898134,6,8
49.450851,15.871368,12.640535,14,25
27.838394,8.5800171,0.85572529,7,9
6.9343719,1.5072937,0.12286305,0,10
30.464706,9.4031982,1.8349206,8,5
7.64888,1.7459717,0.15996492,1,8
49.494827,15.779907,3.6005588,9,30
8.5455933,2.0441284,0.20771372,2,11
49.476578,15.752106,5.3808327,10,33
9.7369843,2.441925,0.26522529,3,12
49.471848,15.73819,7.169734,11,25
11.415451,3.0003662,0.33681321,4,5
49.504074,15.727295,8.9761353,12,23
13.787613,3.7918396,0.45327389,5,10
49.502335,15.714355,10.796415,13,20
17.510056,5.0306091,0.64254439,6,8
49.562881,15.72226,12.652695,14,25
27.835464,8.4756165,0.85684764,7,9
6.9410706,1.4872742,0.12283015,0,10
30.462723,9.2891541,1.8347765,8,34
7.6508636,1.7216187,0.16138303,1,10
49.630692,15.637848,3.6031632,9,30
8.5392914,2.0135193,0.21100807,2,11
49.612198,15.610138,5.3863659,10,33
9.7394409,2.4096069,0.26657069,3,12
49.603378,15.595032,7.1777735,11,25
11.400986,2.9559631,0.34066916,4,8
49.593857,15.570312,8.9808521,12,23
13.790909,3.7441101,0.45446444,5,10
49.651688,15.57724,10.81345,13,20
17.483505,4.9586487,0.64583027,6,8
49.711685,15.584717,12.673153,14,25
27.873947,8.3851318,0.85641396,7,9
6.9385529,1.4642029,0.12556076,0,10
30.504013,9.1895142,1.8346112,8,34
7.6619873,1.7003174,0.1603775,1,12
49.735764,15.485138,3.604681,9,30
8.5365906,1.9842224,0.21347022,2,11
49.72084,15.458771,5.3899746,10,33
9.7492676,2.3797913,0.26652408,3,12
49.708023,15.442505,7.1829143,11,25
11.412704,2.9203491,0.34061384,4,8
49.754684,15.43631,8.996109,12,23
13.771317,3.6890564,0.45818138,5,10
49.766983,15.428223,10.824263,13,21
17.468033,4.8906555,0.64827609,6,8
49.834,15.437927,12.687819,14,25
27.896896,8.2895813,0.85655463,7,9
6.9359741,1.4411926,0.12829292,0,10
30.556381,9.0934448,1.834445,8,40
7.669342,1.6777039,0.16034353,1,12
49.90123,15.351562,3.608403,9,30
8.541214,1.9573975,0.21426582,2,11
49.83287,15.308075,5.3938704,10,33
9.736496,2.3426208,0.27066183,3,12
49.880356,15.311462,7.1955471,11,25
11.420547,2.8834534,0.34112,4,8
49.847305,15.279419,9.0014,12,23
13.762878,3.6377869,0.46063995,5,10
49.919357,15.29071,10.842009,13,21
17.448502,4.8216248,0.65100741,6,8
49.970779,15.295258,12.705812,14,25
27.866257,8.1767273,0.85869104,7,9
6.9534149,1.4246521,0.12494934,0,10
30.629349,9.0038147,1.8342716,8,17
7.6655426,1.6515808,0.16322136,1,12
50.024429,15.203613,3.6106277,9,31
8.5457306,1.9305725,0.21506345,2,11
49.951981,15.15921,5.3983293,10,34
9.734848,2.3092346,0.27271056,3,12
49.942429,15.144287,7.1961374,11,25
11.428238,2.8465576,0.34162855,4,8
49.98848,15.137787,9.0139084,12,23
13.765594,3.590332,0.46183968,5,10
50.052567,15.146332,10.856302,13,21
17.402054,4.7442932,0.6557138,6,8
50.099747,15.149475,12.722157,14,25
27.896072,8.0836487,0.85856026,7,9
6.9546356,1.4026794,0.12657928,0,10
30.691116,8.909668,1.8341122,8,80
7.6619873,1.6253357,0.1661011,1,14
50.151627,15.055298,3.6129994,9,31
8.5579681,1.9059143,0.2141943,2,11
50.132126,15.028046,5.4072232,10,34
9.7465363,2.2798157,0.27232158,3,12
50.118362,15.011932,7.2092061,11,25
11.417282,2.8034668,0.34493554,4,8
50.144913,14.999237,9.0286427,12,24
13.755234,3.5384216,0.46451473,5,10
50.152115,14.989685,10.86438,13,21
17.378525,4.6742249,0.65873492,6,8
50.228836,15.002014,12.738512,14,25
27.987076,8.0091248,0.85616148,7,9
6.9683075,1.3848877,0.12434292,0,10
30.778824,8.8240662,1.8339415,8,100
7.6727753,1.6039429,0.16510141,1,14
50.270157,14.904846,3.6151083,9,31
8.5473785,1.8744202,0.21833181,2,11
50.238998,14.874084,5.4108739,10,34
9.7483978,2.2476501,0.27367735,3,10
50.255356,14.867584,7.2181296,11,25
11.432236,2.7689819,0.34433067,4,2
50.255081,14.846466,9.0367355,12,24
13.759476,3.4916382,0.46551025,5,10
50.299484,14.848663,10.881464,13,21
17.369522,4.609436,0.66063428,6,8
50.405472,14.869934,12.765656,14,26
28.043045,7.9239197,0.85504782,7,9
6.9598846,1.360199,0.12873816,0,10
30.847214,8.7320557,1.8337901,8,31
7.6723785,1.57901,0.16701388,1,14
50.392075,14.754913,3.6173644,9,31
8.5497284,1.8470154,0.21955156,2,11
50.38356,14.731354,5.4173002,10,34
9.7557831,2.2171936,0.27398944,3,12
50.399551,14.724792,7.2278953,11,25
11.420609,2.7262573,0.34764254,4,8
50.402603,14.704803,9.0503826,12,24
13.74263,3.438385,0.46882248,5,10
50.446487,14.706757,10.89856,13,21
17.341202,4.5389404,0.6639452,6,8
50.521988,14.718384,12.779547,14,26
28.110184,7.84198,0.85351348,7,9
6.958725,1.3377686,0.13092482,0,10
30.903824,8.6362305,1.8336527,8,100
7.6811981,1.5569458,0.16650259,1,14
50.540268,14.612488,3.6205907,9,31
8.5519867,1.8196106,0.22077322,2,11
50.512405,14.583191,5.4226313,10,34
9.7460785,2.1816101,0.27744043,3,12
50.535751,14.578857,7.2368398,11,25
11.423935,2.6882324,0.34871995,4,8
50.519363,14.553101,9.0596085,12,24
13.746506,3.3917236,0.46982408,5,7
50.521408,14.542328,10.902515,13,21
17.327866,4.4733276,0.666134,6,8
50.619278,14.560547,12.789301,14,26
28.165634,7.7561646,0.85241163,7,9
6.9648132,1.317688,0.13090265,0,10
30.973526,8.5441589,1.8335131,8,47
7.6750336,1.530426,0.16987348,1,14
8.556015,1.7928162,0.22157931,2,11
9.7437897,2.1483459,0.27949953,3,12
50.61058,14.413879,7.2391472,11,25
11.430923,2.6514282,0.34924078,4,8
50.631912,14.399628,9.0682888,12,24
13.733047,3.3399353,0.47272158,5,7
50.644882,14.392212,10.915482,13,21
17.291306,4.4009705,0.67001641,6,8
50.759842,14.405975,12.808176,14,26
28.12886,7.6425476,0.85472858,7,9
50.842575,14.419312,14.729418,15,35
6.9637756,1.294342,0.13309097,0,10
7.678421,1.5055542,0.17081916,1,14
8.5543213,1.7643433,0.22363853,2,11
9.7531281,2.1170044,0.27946758,3,12
50.73317,14.25351,7.2464428,11,25
11.418808,2.6089478,0.3525604,4,8
50.797165,14.261261,9.0847378,12,24
13.729568,3.2889099,0.47456861,5,10
50.815781,14.246185,10.936752,13,21
17.273605,4.3346558,0.67249465,6,8
50.893692,14.258026,12.826244,14,26
28.158218,7.5438538,0.85462999,7,9
6.9789581,1.2769165,0.13030887,0,10
31.198074,8.3783875,1.8331909,8,5
7.6832581,1.4823608,0.17128265,1,14
8.5603943,1.7367859,0.22402978,2,11
9.7619476,2.0871582,0.27943921,3,10
50.902328,14.11557,7.2591596,11,25
11.410812,2.5659485,0.35532129,4,8
50.89357,14.10199,9.0912247,12,24
13.734802,3.2429199,0.47536886,5,10
50.93837,14.094604,10.949739,13,21
17.267105,4.2717896,0.67413199,6,8
50.99324,14.099518,12.836861,14,26
28.174332,7.4463806,0.85496914,7,9
51.130844,14.12854,14.777342,15,36
6.9697876,1.2534485,0.13471198,0,10
31.407608,8.3312378,1.8329782,8,6
7.6876526,1.4602966,0.1717484,1,14
8.563736,1.7113037,0.22484231,2,11
9.7740021,2.059845,0.27871704,3,10
51.030411,13.974304,7.2677398,11,25
11.413055,2.5298462,0.35641015,4,8
51.036514,13.965088,9.1049318,12,24
13.716309,3.1925049,0.47869849,5,10
51.065567,13.953125,10.964127,13,22
17.259567,4.2118835,0.67577553,6,8
51.116165,13.956757,12.8533,14,26
28.181046,7.3514099,0.85560298,7,9
6.9623718,1.2305603,0.13856375,0,10
36.624222,9.7155762,1.8293285,8,15
7.6938477,1.4387817,0.17173052,1,12
8.5707703,1.6868896,0.22482216,2,11
9.7670135,2.0270691,0.28148234,3,10
51.158096,13.832336,7.27633,11,26
11.422775,2.4960022,0.35638249,4,8
51.181503,13.818756,9.1186428,12,24
13.705246,3.1445007,0.48118937,5,10
51.222702,13.819611,10.984062,13,22
17.233414,4.1438293,0.67882872,6,8
51.27626,13.824036,12.878038,14,26
28.248978,7.2739563,0.85396659,7,9
6.9736328,1.2120056,0.13689053,0,10
36.603561,9.5762024,1.8292723,8,31
7.6872406,1.4124146,0.17510903,1,14
8.5705414,1.6590271,0.22647107,2,11
9.7527618,1.9906921,0.28564298,3,10
51.310806,13.687439,7.2874174,11,26
11.417633,2.4559937,0.35859299,4,8
51.307053,13.666199,9.1295938,12,24
13.704208,3.0970459,0.48262942,5,10
51.347763,13.666931,10.997772,13,22
17.216599,4.0787048,0.68118143,6,11
51.476212,13.69223,12.911072,14,26
28.302597,7.1870728,0.85290122,7,9
6.9719086,1.1897583,0.13908648,0,10
36.642044,9.4537659,1.8291832,8,31
7.682373,1.3866272,0.17800403,1,14
8.5815277,1.6343079,0.22561896,2,11
9.7649078,1.9618835,0.28492522,3,12
51.413345,13.52774,7.2931137,11,26
11.404709,2.4139709,0.36192465,4,8
51.439774,13.515076,9.1416645,12,24
13.703003,3.0496521,0.48407221,5,10
51.472427,13.513519,11.011494,13,22
17.195663,4.0126648,0.68381977,6,8
51.565079,13.519165,12.919239,14,26
28.328964,7.0924683,0.8528378,7,9
6.9814606,1.1696167,0.13796794,0,10
35.320541,8.9575195,1.830044,8,7
7.6889496,1.3628235,0.17798901,1,14
8.5735626,1.6044006,0.22893989,2,11
9.7660065,1.9284058,0.28630006,3,12
51.571426,13.373566,7.3046327,11,26
11.395447,2.3730774,0.36469936,4,8
51.556717,13.359039,9.1515293,12,24
13.698349,2.999115,0.48593771,5,10
51.591354,13.348572,11.023836,13,22
17.191788,3.9515686,0.68519449,6,8
51.669876,13.359558,12.931568,14,26
28.356277,6.9930725,0.85277796,7,9
6.9832611,1.148407,0.13906157,0,10
35.088272,8.7602844,1.8301582,8,7
7.691391,1.3391418,0.1789465,1,14
8.5771637,1.5763245,0.2297591,2,11
9.7703247,1.8974915,0.28698063,3,12
51.719009,13.225067,7.3153372,11,26
11.390305,2.3315735,0.36691618,4,8
51.721512,13.205902,9.1680508,12,24
13.689087,2.9497986,0.4882282,5,10
51.798721,13.216339,11.052803,13,22
17.173019,3.883606,0.68769813,6,7
51.849716,13.219696,12.960489,14,26
6.968277,1.1227417,0.14512968,0,10
34.845718,8.5687866,1.83029,8,7
7.6993561,1.3169861,0.17845011,1,14
8.5954285,1.5535889,0.22724354,2,11
9.7593231,1.8624573,0.29045236,3,12
51.831558,13.066498,7.3223152,11,26
11.384537,2.2919312,0.36913645,4,8
51.856644,13.053467,9.1807079,12,24
13.677704,2.9000549,0.49073219,5,10
51.84584,13.040344,11.052719,13,22
17.168655,3.8227539,0.68908024,6,7
51.96492,13.061676,12.975328,14,26
6.9792175,1.1040649,0.14346325,0,10
34.648605,8.3912659,1.8303981,8,14
7.6866302,1.2893066,0.18329179,1,14
8.5946808,1.5257874,0.22890115,2,11
9.763443,1.8315735,0.29113674,3,12
51.966751,12.913391,7.3317962,11,26
11.382431,2.2533264,0.37079978,4,8
51.985245,12.908081,9.1928282,12,24
13.677658,2.8534851,0.4919765,5,10
52.018143,12.897125,11.075481,13,22
17.14476,3.756897,0.69187486,6,7
52.132584,12.916962,13.001785,14,27
27.102097,6.3601685,0.90159261,7,9
6.9807587,1.0829163,0.14456093,0,10
34.449234,8.2210693,1.8305163,8,14
7.6793976,1.2632751,0.18667948,1,14
8.6049042,1.5021973,0.22805798,2,11
9.7655182,1.8002014,0.29217207,3,10
52.07991,12.763336,7.3392138,11,26
11.36824,2.213623,0.37414396,4,8
52.146347,12.761078,9.2093859,12,25
13.685165,2.8088684,0.49238217,5,10
52.126694,12.745911,11.087187,13,22
17.146927,3.7010193,0.69270182,6,7
52.235489,12.754547,13.01416,14,27
26.977341,6.2363281,0.90697074,7,9
6.9931793,1.0656433,0.14234483,0,10
34.289291,8.056366,1.8306134,8,13
7.6887054,1.2427368,0.18570268,1,14
8.585022,1.469574,0.2338903,2,13
9.7709198,1.7713013,0.29251242,3,7
52.233414,12.613708,7.3507943,11,26
11.362015,2.1741943,0.37637138,4,8
52.277939,12.615143,9.2220802,12,25
13.684219,2.7645569,0.49363291,5,10
52.24852,12.588287,11.100975,13,23
17.122543,3.635498,0.69550371,6,10
52.411453,12.619781,13.043129,14,27
26.833817,6.1039734,0.91306496,7,8
6.9815521,1.0411682,0.14731312,0,10
34.100021,7.8918762,1.8307385,8,13
7.6888275,1.2186279,0.18715274,1,14
8.5912476,1.4450684,0.23388457,2,13
52.36116,12.476044,5.505331,10,36
9.7670746,1.7384949,0.29459739,3,7
52.380417,12.4711,7.3619719,11,26
11.362869,2.1385803,0.37748241,4,8
52.369095,12.448914,9.2286892,12,25
13.675964,2.7161255,0.49572742,5,10
52.405838,12.448364,11.121696,13,23
17.110733,3.576416,0.69732356,6,10
52.479233,12.447479,13.048065,14,27
26.785538,6.0014343,0.91560841,7,8
6.9789124,1.0201111,0.14951992,0,10
33.888138,7.7171631,1.8308861,8,13
7.6923523,1.1966248,0.18763411,1,14
52.573288,12.358582,3.6655056,9,33
8.5939178,1.4183044,0.23471451,2,13
52.549026,12.333313,5.5155258,10,36
9.7646027,1.7077026,0.29633582,3,10
52.498367,12.311005,7.3698363,11,26
11.352524,2.0983276,0.3802737,4,8
52.509659,12.294647,9.2425117,12,25
13.663132,2.6690369,0.49824584,5,10
52.507645,12.284393,11.132048,13,23
17.097458,3.5141907,0.6992873,6,10
52.614761,12.291779,13.067936,14,27
26.796097,5.9092712,0.91602218,7,8
6.9822845,0.9984436,0.15007007,0,10
33.768692,7.566925,1.8309765,8,13
7.6831512,1.1691284,0.19151282,1,14
8.5888824,1.389679,0.23721457,2,11
9.7551422,1.6720886,0.29947031,3,15
52.652725,12.149841,7.3814497,11,26
11.361252,2.0628662,0.38027036,4,8
52.649826,12.139526,9.2563448,12,25
13.678223,2.6242676,0.49782073,5,10
52.687637,12.129669,11.15625,13,23
17.068436,3.4482727,0.70238161,6,10
52.77272,12.140808,13.092791,14,27
26.725906,5.7927856,0.91942996,7,8
6.9871979,0.97827148,0.15006912,0,10
33.59938,7.3997803,1.8311093,8,13
7.6754608,1.14328,0.1949079,1,12
8.601181,1.3639832,0.23596215,2,13
9.7470551,1.6385193,0.30225825,3,15
52.781326,11.991089,7.3905835,11,26
11.343338,2.0191345,0.38418484,4,8
52.820328,11.990997,9.2746239,12,25
13.669434,2.5760803,0.49992383,5,10
52.826767,11.973511,11.173544,13,23
17.043701,3.3808289,0.70519769,6,10
52.968246,11.998047,13.125948,14,27
26.673599,5.6859741,0.92213261,7,8
6.9920502,0.95803833,0.15006948,0,10
33.457779,7.252594,1.8312279,8,13
7.6808624,1.1206665,0.19490838,1,12
8.5956268,1.3367004,0.23846579,2,13
9.7580414,1.6095886,0.30156207,3,12
52.945938,11.849792,7.4038825,11,26
11.343643,1.9836731,0.38530481,4,8
52.963425,11.835022,9.2890339,12,25
13.679794,2.5325623,0.49992561,5,10
52.963272,11.825623,11.190849,13,23
17.040695,3.3246155,0.70632708,6,10
53.060593,11.829742,13.136732,14,27
26.627548,5.585907,0.92455602,7,8
6.9834747,0.93572998,0.15393913,0,10
33.324661,7.1026917,1.8313484,8,13
7.6972809,1.1018372,0.1919992,1,14
8.5826874,1.306427,0.24263954,2,13
9.7589569,1.5798645,0.30261064,3,10
53.050339,11.684021,7.4105477,11,27
11.340408,1.9455261,0.38698649,4,8
53.065384,11.678253,9.2979145,12,25
13.674026,2.4875488,0.50161338,5,10
53.101456,11.667877,11.208166,13,23
17.003128,3.2575989,0.70999575,6,10
53.241776,11.691315,13.167425,14,27
26.636642,5.4944458,0.92499298,7,8
6.9788055,0.91339111,0.15670502,0,10
33.177933,6.956665,1.8314831,8,13
7.7025604,1.0791016,0.19200265,1,14
8.5921631,1.2828064,0.24180913,2,13
9.7428589,1.5446777,0.30679893,3,10
53.196732,11.536957,7.4219985,11,27
11.336609,1.9092712,0.38867021,4,8
53.20369,11.519867,9.3117962,12,25
13.664719,2.4395447,0.50372469,5,10
53.237076,11.518402,11.225494,13,23
17.007462,3.2033997,0.71056819,6,10
53.321671,11.519135,13.175745,14,27
26.562576,5.3887024,0.92842317,7,8
6.9875031,0.8939209,0.15560412,0,10
33.033524,6.7999878,1.8316269,8,12
7.6815948,1.0502625,0.19879961,1,14
8.5872498,1.2529297,0.24431789,2,13
9.74617,1.5137939,0.30750275,3,10
53.306534,11.360748,7.4291034,11,27
11.341568,1.8710022,0.38923812,4,8
53.34407,11.350647,9.3256912,12,25
13.667221,2.3940125,0.50457644,5,10
53.376907,11.34903,11.242836,13,24
16.970383,3.1337891,0.71424437,6,10
53.516037,11.371368,13.208948,14,27
26.529495,5.2829895,0.93043768,7,8
6.9920502,0.87371826,0.15560973,0,10
32.925766,6.6593018,1.8317497,8,12
7.6753082,1.0250854,0.2017169,1,14
8.5911407,1.2267456,0.24474227,2,13
9.7393951,1.4809875,0.3099519,3,7
53.494827,11.212067,7.444943,11,27
11.326294,1.8304443,0.39260459,4,8
53.52388,11.200043,9.3456898,12,25
13.661423,2.3470764,0.50627267,5,10
53.513687,11.188873,11.260189,13,24
16.972946,3.0765686,0.71496534,6,7
53.556717,11.189484,13.209005,14,27
26.514114,5.1867981,0.93174553,7,8
7.0002899,0.85430908,0.15451145,0,10
32.883804,6.5340576,1.8318334,8,6
7.6803131,1.0024719,0.20172465,1,14
8.5796356,1.1971436,0.24850547,2,13
9.7421417,1.4503174,0.31065965,3,7
53.643814,11.053741,7.4566398,11,27
11.322464,1.792572,0.39429533,4,8
53.618179,11.029755,9.3535118,12,25
13.66713,2.3027344,0.5067091,5,10
53.692276,11.037109,11.285166,13,24
16.957748,3.015564,0.71695769,6,10
53.784042,11.04837,13.249695,14,27
26.486649,5.0882568,0.93348587,7,8
6.9934235,0.831604,0.15783501,0,10
32.810135,6.4024658,1.8319457,8,12
7.685257,0.97982788,0.20173395,1,14
8.5775909,1.1697388,0.25018489,2,13
9.7370453,1.4179993,0.31276381,3,7
53.761215,10.887817,7.4650264,11,27
11.326248,1.7563782,0.3948698,4,8
53.731277,10.863068,9.3641167,12,25
13.649307,2.2533875,0.50967312,5,10
53.78569,10.866119,11.294933,13,24
16.950119,2.9564209,0.71839011,6,7
53.823563,10.86557,13.249773,14,27
26.482254,4.9949951,0.93437803,7,8
6.9940033,0.81057739,0.15894973,0,10
32.778946,6.2805481,1.8320353,8,18
7.6824951,0.95559692,0.20368505,1,12
8.5773621,1.1427307,0.25144863,2,11
9.7222137,1.3836975,0.31661296,3,10
53.936478,10.733521,7.4796557,11,27
11.322159,1.7185974,0.3965652,4,8
53.929153,10.713806,9.3869219,12,26
13.646896,2.207428,0.51095688,5,10
53.897842,10.698639,11.30817,13,24
16.950089,2.8989868,0.71926248,6,7
54.053879,10.722931,13.291315,14,28
26.547928,4.9166565,0.93271494,7,8
6.9982605,0.79031372,0.15896046,0,10
32.782547,6.1662903,1.8321078,8,18
7.6758575,0.93057251,0.2066083,1,12
8.584671,1.1174011,0.25104535,2,5
9.7169037,1.351532,0.3187207,3,10
54.072372,10.570099,7.4901423,11,27
11.325684,1.6824646,0.39714396,4,8
54.04512,10.546326,9.3981056,12,26
13.640396,2.1607666,0.5126642,5,10
54.05574,10.540131,11.329723,13,24
16.934235,2.8383484,0.72126532,6,7
54.188065,10.559113,13.312145,14,28
26.660355,4.8475952,0.92935055,7,8
6.9986877,0.76931763,0.16007769,0,10
32.781815,6.0513306,1.8321898,8,18
7.6767426,0.90719604,0.20759201,1,12
8.5785065,1.0892639,0.25356376,2,11
9.719162,1.3210144,0.31943619,3,10
54.207748,10.405853,7.5006423,11,27
11.309677,1.6423645,0.40052176,4,8
54.228531,10.401703,9.4192677,12,26
13.637619,2.1149902,0.51395321,5,10
54.232498,10.384552,11.354748,13,24
16.909744,2.7790222,0.72383296,6,7
54.271866,10.384277,13.322208,14,28
26.68248,4.759552,0.92926419,7,8
7.0063629,0.75082397,0.15898526,0,10
32.822647,5.9506226,1.8322461,8,12
7.6811066,0.88571167,0.20760632,1,12
8.5700378,1.0621033,0.25650001,2,11
54.3694,10.273651,5.6079435,10,38
9.719101,1.2915955,0.32050097,3,7
54.340744,10.250031,7.511147,11,27
11.304794,1.6065063,0.40222251,4,8
54.38829,10.251282,9.4371157,12,26
13.62645,2.0698242,0.51608515,5,10
54.3181,10.219391,11.363865,13,24
16.900696,2.7230225,0.72527707,6,7
26.613235,4.6578674,0.93245214,7,8
6.9989166,0.7293396,0.1623143,0,10
32.871048,5.8512878,1.8323033,8,12
7.6815796,0.86343384,0.20859206,1,12
54.434402,10.111755,3.7117519,9,35
8.5672455,1.0361328,0.25818634,2,11
54.476761,10.102325,5.6130543,10,38
9.7131195,1.2610779,0.32261336,3,7
54.500626,10.098846,7.5245724,11,27
11.299789,1.5707092,0.40392518,4,8
54.425064,10.066162,9.437253,12,26
13.619034,2.0255432,0.51779878,5,10
54.546219,10.081879,11.398596,13,25
16.907669,2.6674805,0.72559977,6,10
54.583878,10.081207,13.374691,14,28
26.527969,4.5535889,0.93621379,7,8
6.9953308,0.70761108,0.16454029,0,10
32.931961,5.7484131,1.8323637,8,12
7.6860199,0.84082031,0.20860994,1,12
54.639481,9.9588623,3.7177877,9,35
8.5645905,1.0089111,0.25987518,2,11
54.638474,9.9409485,5.6220465,10,39
9.7112274,1.2298279,0.32403135,3,7
54.64238,9.9336243,7.5359383,11,27
11.306686,1.5354614,0.40395355,4,8
54.65181,9.9177551,9.4645529,12,26
13.611862,1.979187,0.51951659,5,10
54.582352,9.8963318,11.398745,13,25
16.894821,2.6081543,0.72733414,6,7
54.71608,9.9141846,13.395569,14,28
26.501968,4.4568787,0.93785036,7,8
6.9954681,0.68661499,0.16566265,0,10
32.969009,5.6407166,1.8324473,8,12
7.6808624,0.8163147,0.21105468,1,14
54.773514,9.7912598,3.7213714,9,35
8.5772247,0.98468018,0.25822878,2,11
54.81929,9.7823181,5.6324339,10,39
9.6975708,1.1964722,0.32754278,3,7
54.787491,9.76828,7.5477338,11,28
11.309555,1.4994202,0.40454328,4,8
54.741898,9.7420654,9.4724712,12,26
13.604538,1.9329224,0.52123725,5,10
54.811417,9.747345,11.433506,13,25
16.879807,2.5485229,0.72921264,6,10
54.847733,9.7463379,13.41646,14,28
26.475632,4.3604126,0.93949234,7,8
7.0011749,0.66674805,0.16512847,0,10
33.103958,5.5512085,1.8324728,8,6
7.6889496,0.79443359,0.21010518,1,14
54.859879,9.6139526,3.7233236,9,35
8.5801544,0.95855713,0.25866973,2,8
54.921158,9.6078796,5.6373053,10,39
9.7031555,1.1667786,0.32757008,3,7
54.873489,9.5911255,7.553309,11,28
11.292831,1.4597778,0.4079318,4,8
54.917099,9.5817871,9.4925938,12,26
13.593094,1.8859558,0.52338111,5,10
54.916122,9.573822,11.446138,13,25
16.864563,2.4890747,0.73109472,6,10
55.075027,9.5956116,13.458088,14,28
26.338882,4.2437439,0.94512141,7,8
7.0030365,0.64611816,0.16570079,0,10
33.211166,5.45578,1.8325243,8,12
7.6855316,0.77035522,0.21206784,1,14
55.039993,9.4534912,3.7285757,9,36
8.5695038,0.92996216,0.26203167,2,5
55.049942,9.4378662,5.644125,10,39
9.7047577,1.1364136,0.32829654,3,7
55.041031,9.4285278,7.5676217,11,28
11.29155,1.4231262,0.40908527,4,8
55.048965,9.4125671,9.5066328,12,26
13.58345,1.8395081,0.52531731,5,7
55.074539,9.4096069,11.46847,13,25
16.862808,2.4322815,0.73199439,6,7
55.178787,9.4209595,13.4732,14,28
26.221237,4.1317139,0.9500441,7,8
6.9991608,0.62454224,0.16793191,0,10
33.365311,5.3682251,1.8325527,8,6
7.6934509,0.74841309,0.21112108,1,14
55.17244,9.2834167,3.7321973,9,36
8.574173,0.90423584,0.26205862,2,8
55.170364,9.2657166,5.650403,10,39
9.7023773,1.1053162,0.32972205,3,7
55.231583,9.2690735,7.5844407,11,28
11.282303,1.3851318,0.41135943,4,8
55.180313,9.2426147,9.5206842,12,26
13.559937,1.7907104,0.52872872,5,7
55.205276,9.2395325,11.485971,13,25
16.853043,2.374115,0.73346066,6,7
55.285782,9.2463989,13.489153,14,28
26.126785,4.0247803,0.95411849,7,8
6.995224,0.60290527,0.17016423,0,13
7.6936798,0.72503662,0.21211648,1,14
55.30043,9.1118469,3.7356946,9,36
8.5749054,0.87780762,0.26292145,2,8
55.325607,9.0990295,5.6591835,10,40
9.6921387,1.0729065,0.33254349,3,10
55.347275,9.0953674,7.5933781,11,28
11.296341,1.3512878,0.41028047,4,8
55.367996,9.0915222,9.5430508,12,26
13.53624,1.7420654,0.5321424,5,7
55.335526,9.0686951,11.503485,13,25
16.84108,2.3157043,0.73507106,6,10
26.039749,3.9198914,0.95791322,7,8
7.002533,0.58334351,0.16908276,0,13
7.6899872,0.70101929,0.21408319,1,14
55.47908,8.9483643,3.7409861,9,36
8.5695343,0.85168457,0.26503551,2,11
55.44722,8.9354248,5.6657529,10,40
9.6720734,1.0389404,0.33710968,3,12
55.494095,8.9361267,7.6058483,11,28
11.298264,1.3171387,0.41087925,4,8
55.494431,8.9190979,9.5565739,12,26
13.537811,1.6980286,0.5328244,5,10
55.560684,8.9231873,11.538301,13,26
16.810715,2.2571716,0.73794854,6,10
55.633102,8.9185486,13.550119,14,29
25.979141,3.8247375,0.96071231,7,8
7.0058289,0.56408691,0.16910636,0,13
7.6804504,0.67611694,0.21750665,1,14
55.659561,8.7938538,3.7464161,9,36
8.5797272,0.8269043,0.263816,2,11
55.609329,8.7683105,5.6751118,10,40
9.6751709,1.0090027,0.33749497,3,15
55.624374,8.7635803,7.6164732,11,28
11.280807,1.2779541,0.41427839,4,8
55.667191,8.7538147,9.5767593,12,27
13.527481,1.6519775,0.5347712,5,7
55.689896,8.7503967,11.55584,13,26
16.794388,2.1983948,0.73984694,6,7
55.769363,8.7468567,13.572746,14,29
25.911697,3.7200928,0.96381128,7,8
7.0112915,0.54309082,0.16858137,0,13
56.485367,8.7328186,1.8183777,8,18
7.6825104,0.65206909,0.21802247,1,14
55.791519,8.6107788,3.7501016,9,37
8.5707245,0.79763794,0.2667706,2,11
55.800003,8.5951843,5.6864314,10,40
9.6803436,0.97796631,0.3375355,3,15
55.787094,8.585907,7.6304483,11,28
11.271347,1.2384033,0.41656339,4,8
55.798019,8.5708313,9.5908775,12,27
13.517303,1.6039124,0.53672338,5,10
55.820145,8.5674133,11.573404,13,26
16.788132,2.1386414,0.74104834,6,7
55.852554,8.5559082,13.583788,14,29
25.816238,3.6114807,0.96791011,7,7
7.0033875,0.51992798,0.17192519,0,13
56.688309,8.5577087,1.8185457,8,18
7.6881256,0.62973022,0.21756828,1,14
56.0215,8.4427795,3.7572293,9,37
8.5596771,0.76812744,0.27014387,2,11
55.91774,8.4189148,5.6927748,10,40
9.6773987,0.94708252,0.33897018,3,15
55.984573,8.4128418,7.6481786,11,28
11.257797,1.1983948,0.41941011,4,8
55.926712,8.3965149,9.6049938,12,27
13.488937,1.5552368,0.54056787,5,10
56.047012,8.3991089,11.608286,13,26
16.787094,2.0826721,0.74182737,6,10
56.076553,8.3969727,13.625511,14,29
25.77095,3.5161133,0.97016078,7,7
6.996994,0.49917603,0.17471504,0,13
56.860001,8.3962708,1.8187182,8,18
7.6915741,0.60821533,0.21759892,1,14
56.10582,8.269928,3.759408,9,37
8.5732422,0.74526978,0.26809347,2,11
56.017624,8.2489929,5.6980124,10,40
9.6624146,0.91592407,0.34249556,3,15
56.111679,8.2471008,7.6588297,11,28
11.255264,1.1638184,0.4205761,4,8
56.076797,8.2347107,9.6224356,12,27
13.483643,1.5126648,0.54188848,5,10
56.075821,8.217926,11.608549,13,26
16.775589,2.0279236,0.7433095,6,10
56.155533,8.2236633,13.636553,14,29
25.720657,3.4247437,0.97255206,7,7
7.0095062,0.48144531,0.17198098,0,13
7.6796112,0.58428955,0.22151101,1,14
56.17775,8.0947571,3.7611866,9,37
8.557724,0.71780396,0.27230024,2,11
56.244644,8.0884399,5.7121253,10,41
9.6512299,0.88546753,0.34532559,3,15
56.238297,8.0805969,7.6694932,11,28
11.256546,1.1298523,0.42118537,4,8
56.180923,8.0551758,9.6332531,12,27
13.478165,1.4701233,0.54321122,5,10
56.298721,8.0665283,11.643431,13,26
16.762344,1.9702454,0.74493945,6,10
56.326828,8.0641785,13.667509,14,29
25.72139,3.3416443,0.97310108,7,7
7.0069122,0.46026611,0.1736697,0,13
40.731094,5.5670166,1.829282,8,9
7.6753998,0.56051636,0.22348619,1,14
56.404678,7.9329224,3.7683411,9,37
8.5655212,0.69268799,0.27150607,2,8
56.372574,7.9114685,5.7193384,10,41
9.6518402,0.8553772,0.34606838,3,15
56.346207,7.9007874,7.6781054,11,29
11.246231,1.0924377,0.42347658,4,5
56.405899,7.89328,9.6612654,12,27
13.480759,1.4266968,0.54369867,5,10
56.327805,7.8749084,11.64373,13,26
16.758743,1.9141541,0.74586904,6,7
56.549393,7.9016113,13.709272,14,29
25.714615,3.2531128,0.97394574,7,7
7.0099335,0.44000244,0.17370224,0,10
40.739853,5.4273682,1.8295109,8,9
7.6787872,0.53790283,0.22352242,1,14
56.532333,7.7549744,3.7720807,9,37
8.5461426,0.66357422,0.27655172,2,5
56.499924,7.7337036,5.7265644,10,41
9.6523438,0.82528687,0.34681308,3,15
56.492874,7.7261047,7.6908879,11,29
11.247513,1.0567627,0.42409241,4,5
56.630386,7.7299194,9.6892929,12,27
13.469406,1.3812256,0.54566073,5,10
16.758896,1.8587341,0.74652052,6,7
56.628189,7.7166138,13.720367,14,29
25.715408,3.165863,0.97451156,7,7
7.0053101,0.41860962,0.17594552,0,13
39.980057,5.1769104,1.8302133,8,8
7.674408,0.51419067,0.22550023,1,14
56.631668,7.5723267,3.774873,9,38
8.549881,0.63790894,0.27659464,2,8
56.626724,7.5552063,5.7338037,10,41
9.6507721,0.79498291,0.34790814,3,12
56.66655,7.5544739,7.706594,11,29
11.236923,1.0194397,0.42638779,4,5
56.65834,7.5369873,9.6896191,12,27
13.450027,1.3347473,0.54846632,5,10
16.752914,1.8024597,0.74759746,6,10
56.799393,7.5444946,13.751379,14,29
25.672348,3.0723877,0.97664464,7,7
6.9990082,0.39685059,0.17874289,0,13
39.813553,5.0147095,1.8305591,8,8
7.6818085,0.49197388,0.22456944,1,14
56.885269,7.4096985,3.7830305,9,38
8.5499725,0.61157227,0.27747321,2,5
56.804764,7.3820801,5.7446537,10,41
9.628006,0.76144409,0.35283792,3,12
56.844131,7.3812256,7.7227297,11,29
11.250076,0.98532104,0.42533112,4,5
56.882278,7.3703613,9.7176743,12,27
13.440659,1.2895813,0.55022299,5,10
16.753006,1.7467957,0.74825549,6,10
56.900772,7.3604431,13.767475,14,29
25.577866,2.9716797,0.98062778,7,7
7.0056305,0.37713623,0.17767429,0,13
39.602432,4.8485107,1.830937,8,8
7.6714935,0.46746826,0.22800493,1,14
8.5380402,0.58380127,0.28085506,2,5
56.977829,7.208313,5.7552409,10,42
9.6203766,0.73043823,0.35498166,3,12
56.969437,7.2008972,7.7334747,11,29
11.231369,0.94702148,0.42874861,4,5
56.97963,7.1861877,9.7280045,12,27
13.432739,1.2449646,0.55177188,5,10
16.728836,1.6882324,0.75060511,6,10
57.047562,7.183197,13.793539,14,30
25.534073,2.8791199,0.98276997,7,7
7.0083771,0.35684204,0.17771184,0,13
39.450089,4.6917725,1.8312857,8,17
7.661087,0.44311523,0.23144174,1,14
39.233963,4.6586609,3.1703773,9,14
8.5492401,0.5592041,0.27923501,2,8
57.201797,7.0402832,5.7694397,10,42
9.6243134,0.70101929,0.35503662,3,12
57.133621,7.0250244,7.7483912,11,29
11.212509,0.90890503,0.43216801,4,5
57.130081,7.0184631,9.7460918,12,27
13.424667,1.20047,0.55332351,5,10
16.720276,1.6319885,0.75183249,6,10
57.217117,7.0080566,13.824591,14,30
25.517685,2.7905579,0.98392338,7,7
7.0053558,0.33581543,0.17940795,0,13
39.486649,4.5675659,1.8315175,8,8
7.6640472,0.42056274,0.23148501,1,14
39.045242,4.4992981,3.1634927,9,13
8.5291901,0.53182983,0.28428531,2,11
9.6203766,0.6706543,0.35648692,3,12
57.299911,6.8583984,7.7637186,11,29
11.205078,0.87417603,0.43390918,4,5
57.273422,6.8390503,9.7631016,12,28
13.422363,1.1567688,0.55424702,5,10
16.711166,1.5784912,0.75305784,6,10
57.362778,6.8289185,13.850681,14,30
25.413223,2.6951904,0.98819482,7,7
6.9982758,0.31536865,0.1822077,0,13
7.6648865,0.39886475,0.23201251,1,14
38.874924,4.3504028,3.1572866,9,13
8.5266266,0.50549316,0.28558707,2,11
57.449081,6.6846008,5.7840238,10,42
9.6161346,0.64172363,0.35793626,3,12
57.388016,6.6710205,7.770762,11,29
11.209534,0.83929443,0.4339788,4,2
57.376846,6.6537781,9.774581,12,28
13.397903,1.1125488,0.55748081,5,7
57.489334,6.6621094,11.819244,13,28
16.702194,1.5223999,0.75429142,6,10
57.510574,6.6590271,13.877596,14,30
25.340622,2.6002502,0.99134338,7,7
6.987442,0.29348755,0.18611562,0,13
7.6657715,0.37606812,0.23254347,1,14
38.700821,4.1956177,3.1509621,9,13
8.5162201,0.47824097,0.28855777,2,13
57.552658,6.4983215,5.7899613,10,42
9.6119537,0.61141968,0.35939014,3,15
57.609756,6.4995422,7.7919588,11,29
11.198135,0.80239868,0.43628645,4,2
57.597672,6.4823303,9.8027077,12,28
13.385422,1.0678101,0.55946004,5,10
16.693039,1.4663696,0.75552821,6,10
57.728928,6.48703,13.919476,14,30
25.239883,2.5025635,0.99548894,7,7
6.9899139,0.27328491,0.18615806,0,10
7.6492462,0.35119629,0.23744011,1,14
38.530106,4.042572,3.1447804,9,13
8.5115509,0.45181274,0.29027927,2,13
57.695267,6.3161316,5.7986822,10,43
9.6076813,0.58111572,0.36084569,3,15
57.755905,6.317627,7.8052683,11,29
11.206268,0.76800537,0.43580151,4,2
57.817947,6.3094177,9.8308506,12,28
13.378677,1.0238953,0.56081128,5,10
57.73262,6.2936707,11.854687,13,28
16.679703,1.4099731,0.75704944,6,10
25.222122,2.4154358,0.99666041,7,7
6.9999237,0.25396729,0.18399251,0,10
39.020004,3.9712219,1.8329184,8,8
7.648056,0.32821655,0.23845887,1,14
38.334976,3.888092,3.1377797,9,13
8.5184326,0.42672729,0.28950095,2,13
57.916519,6.1421204,5.8129535,10,43
9.6052551,0.55108643,0.36195469,3,15
57.905411,6.1353149,7.8190079,11,30
11.206406,0.7326355,0.43643665,4,2
57.840958,6.1123657,9.8312817,12,28
13.37178,0.9800415,0.56216502,5,10
57.951248,6.1195984,11.88974,13,28
16.666168,1.3537292,0.75857377,6,10
57.969742,6.1163025,13.9618,14,30
25.160385,2.3233948,0.99939609,7,7
6.9984283,0.23324585,0.18514228,0,10
36.208878,3.5214233,1.8347414,8,7
7.6467743,0.30526733,0.23947871,1,14
38.155075,3.7367554,3.1313336,9,13
8.4980164,0.39855957,0.29456055,2,13
58.08577,5.960968,5.8236399,10,43
9.60466,0.52133179,0.36271715,3,15
58.054367,5.9519958,7.8327622,11,30
11.182831,0.69464111,0.44042659,4,2
58.060135,5.9371948,9.8594513,12,28
13.372635,0.93713379,0.56268072,5,10
16.660339,1.2984314,0.75953889,6,10
58.186478,5.9406433,14.003723,14,30
25.090347,2.2310181,1.0024195,7,7
6.9815521,0.2109375,0.1907115,0,13
36.04744,3.3802795,1.8351145,8,21
7.6492462,0.28274536,0.23953032,1,12
37.970596,3.5863037,3.1247551,9,13
8.500824,0.37307739,0.29461908,2,13
58.159134,5.7683105,5.8276963,10,43
9.6000671,0.49111938,0.36417794,3,12
58.147354,5.7617493,7.8407063,11,30
11.182724,0.65939331,0.44106579,4,2
13.351578,0.89187622,0.56551015,5,7
58.190994,5.7458801,11.925268,13,28
16.650375,1.2427979,0.76078832,6,10
58.278122,5.7501831,14.019114,14,30
25.000076,2.1369934,1.0061554,7,7
6.9856415,0.19094849,0.19020665,0,13
36.143997,3.2675171,1.8353568,8,21
7.6555176,0.26068115,0.23861372,1,14
37.829269,3.4417725,3.1196942,9,26
8.4996643,0.34716797,0.29551291,2,13
9.5914459,0.46060181,0.3663373,3,10
58.366287,5.584137,7.8619785,11,30
11.190353,0.62493896,0.44058955,4,2
58.370743,5.5693665,9.8980942,12,28
13.330368,0.84680176,0.56834185,5,7
58.407913,5.5681458,11.960367,13,29
16.644165,1.1876526,0.76175988,6,10
58.42366,5.5647888,14.046133,14,30
24.988937,2.0519104,1.0070615,7,7
6.9896545,0.17095947,0.18970311,0,13
36.196426,3.1496887,1.8356307,8,14
7.6385345,0.23617554,0.24351656,1,14
37.655563,3.2950439,3.1135385,9,26
8.4925385,0.32073975,0.2976588,2,13
9.5787811,0.42974854,0.36919463,3,10
58.521347,5.3987122,7.8766084,11,30
11.189987,0.58969116,0.44123316,4,2
58.517288,5.3831482,9.9163284,12,28
13.31691,0.80267334,0.57033575,5,10
58.624283,5.3889771,11.99548,13,29
16.633804,1.1321716,0.76301575,6,10
58.638626,5.3855591,14.088102,14,31
24.973557,1.9664917,1.0081143,7,7
6.9859467,0.150177,0.19140995,0,13
37.996048,3.2033997,1.8350275,8,7
7.6369476,0.21331787,0.24454176,1,12
37.465347,3.1480408,3.106837,9,26
8.4951019,0.29525757,0.29772198,2,11
58.689194,5.2185669,5.8618298,10,44
9.5758209,0.39993286,0.37031221,3,10
58.675827,5.2122498,7.8912535,11,30
11.157974,0.5513916,0.44634831,4,2
58.73317,5.2129517,9.9445362,12,28
13.297318,0.75811768,0.57296205,5,10
16.619247,1.0763855,0.76455569,6,10
58.849167,5.2044678,14.129255,14,31
24.918045,1.8774109,1.0105877,7,7
6.9859772,0.12979126,0.1920135,0,13
38.107376,3.0909424,1.8352873,8,8
7.6391144,0.19082642,0.24459887,1,14
37.294479,3.0042725,3.1008282,9,13
8.4876862,0.27017212,0.29986763,2,11
58.83461,5.0402832,5.8711801,10,44
9.5727386,0.37011719,0.37143171,3,10
58.820816,5.0341187,7.9050555,11,30
11.172958,0.51950073,0.44475663,4,2
58.752365,5.0126953,9.9450474,12,28
13.289474,0.71481323,0.57433033,5,10
16.620163,1.0249023,0.76496768,6,10
58.868271,5.0041199,14.12977,14,31
24.80217,1.7872925,1.015178,7,7
6.9801178,0.1098938,0.19427216,0,10
38.294662,2.978241,1.8355365,8,8
7.6333771,0.16876221,0.24659371,1,14
37.138382,2.8694458,3.0953581,9,13
8.482254,0.24404907,0.30160093,2,11
59.051956,4.8575745,5.8855586,10,45
9.573349,0.3421936,0.37185228,3,10
59.03746,4.8514709,7.9263892,11,30
11.164352,0.48358154,0.44652355,4,2
59.066727,4.8392639,9.9871807,12,29
13.269394,0.6725769,0.57695544,5,10
16.617142,0.97039795,0.76567078,6,10
59.080582,4.8313293,14.171759,14,31
24.694229,1.6945801,1.0194987,7,7
6.9665985,0.088378906,0.19874346,0,10
37.043137,2.7377014,1.8364866,8,7
7.6392517,0.14663696,0.24568391,1,12
36.966415,2.7281189,3.0893583,9,26
8.4923248,0.2192688,0.30000186,2,8
59.141495,4.6621704,5.8910851,10,45
9.5661469,0.31210327,0.37367153,3,10
59.182205,4.6611633,7.9402461,11,30
11.147705,0.44711304,0.44940937,4,2
13.261246,0.62942505,0.57832825,5,10
59.184891,4.6421204,12.083424,13,29
16.615936,0.91610718,0.76623654,6,10
59.293259,4.6471252,14.213787,14,31
24.570053,1.6012878,1.0243884,7,7
6.968338,0.068237305,0.19879818,0,10
7.6237946,0.12271118,0.250108,1,12
37.008987,2.6061096,3.0908,9,26
8.4828186,0.19284058,0.30257165,2,5
9.5431366,0.28079224,0.37827814,3,10
59.346146,4.4715881,7.9562006,11,31
11.150665,0.41241455,0.44950449,4,2
59.396927,4.4713745,10.02986,12,29
13.248978,0.58602905,0.58012354,5,10
16.588455,0.86239624,0.76862407,6,9
24.469376,1.5108643,1.0284319,7,7
6.9699249,0.049133301,0.19885147,0,12
37.161453,2.5018311,1.8371129,8,100
7.6255493,0.10144043,0.25016737,1,12
37.110489,2.4949646,3.0942993,9,39
8.4886932,0.16903687,0.30180573,2,5
59.499893,4.3049622,5.914875,10,45
9.5414886,0.25280762,0.37905192,3,10
59.484879,4.2891235,7.9696441,11,31
11.133636,0.37783813,0.45238948,4,2
13.240341,0.5451355,0.58149529,5,10
16.580688,0.8104248,0.76960969,6,9
59.521011,4.2689819,14.256374,14,31
24.431808,1.4302368,1.0302043,7,6
6.975296,0.030273438,0.19780147,0,10
37.270584,2.3904419,1.8374066,8,91
7.6195221,0.079498291,0.25216663,1,8
37.21553,2.3834534,3.0979447,9,26
8.4750061,0.14364624,0.30520821,2,5
9.5377655,0.22470093,0.38017511,3,12
59.69838,4.1116638,7.9910107,11,31
11.108566,0.34280396,0.45639277,4,2
13.227615,0.5039978,0.58328903,5,10
59.723648,4.0949402,12.171667,13,30
16.574936,0.75601196,0.77046549,6,9
59.731888,4.0812683,14.298452,14,31
24.382004,1.348999,1.0324047,7,6
6.9577332,0.0076904297,0.20338416,0,10
7.6174164,0.05569458,0.25320446,1,8
37.317215,2.2584229,3.1014986,9,39
8.457428,0.11685181,0.30944884,2,5
9.5381165,0.19403076,0.38061225,3,15
59.857315,3.9082642,8.0066242,11,31
11.107224,0.30792236,0.45705211,4,2
13.207108,0.45825195,0.58593702,5,10
16.555054,0.70062256,0.77230716,6,9
59.942154,3.8921204,14.340544,14,32
24.336472,1.2603149,1.0344911,7,6
6.9592133,-0.012420654,0.20344377,0,10
37.682755,2.1602173,1.8379952,8,7
7.6190338,0.033294678,0.25327086,1,8
37.402054,2.1378479,3.1044927,9,26
8.4515533,0.089660645,0.31119442,2,8
9.5284271,0.16409302,0.38278782,3,15
60.002914,3.7131653,8.0209751,11,31
11.097977,0.27081299,0.45883548,4,2
60.047806,3.7020569,10.114901,12,29
13.198166,0.41552734,0.58732152,5,10
16.553085,0.64395142,0.77289653,6,9
24.274399,1.1749573,1.0371349,7,6
6.9567566,-0.032806396,0.20460856,0,10
37.942947,2.0498352,1.8382754,8,7
7.6109161,0.010253906,0.2557621,1,8
37.518448,2.0188904,3.1085994,9,26
8.4415436,0.063598633,0.31377125,2,11
60.153763,3.5214844,5.9586263,10,46
9.5127258,0.13381958,0.38600922,3,15
11.068695,0.23419189,0.4634074,4,2
13.193085,0.37310791,0.58828866,5,10
16.530807,0.5887146,0.77488446,6,9
24.180069,1.0879517,1.0409123,7,6
6.9580688,-0.052886963,0.20467067,0,10
37.999222,1.9247437,1.838652,8,7
7.6026764,-0.012756348,0.25825453,1,8
37.618423,1.8981323,3.1121645,9,26
8.4373474,0.037963867,0.31509948,2,13
9.5146027,0.1048584,0.38609922,3,12
60.347733,3.3236694,8.0555534,11,31
11.082779,0.20050049,0.46183956,4,5
13.173935,0.32992554,0.59072733,5,10
16.51033,0.53375244,0.77673495,6,9
24.141312,1.0050354,1.0427155,7,6
6.9554596,-0.07321167,0.2058382,0,10
38.146927,1.8047791,1.8390014,8,8
7.5963135,-0.035552979,0.26026344,1,8
37.710037,1.7762146,3.1154637,9,26
8.4252319,0.011901855,0.31809533,2,13
9.5104828,0.075500488,0.38723516,3,15
11.073013,0.16531372,0.46362364,4,2
13.18045,0.28839111,0.59044015,5,10
16.517563,0.4805603,0.77662408,6,9
60.581741,3.1098938,14.467583,14,33
24.066299,0.92034912,1.0457935,7,6
6.9492188,-0.09286499,0.20810747,0,10
7.5901031,-0.057342529,0.26226997,1,8
37.80925,1.6598511,3.1190281,9,40
8.4191132,-0.012664795,0.31983876,2,13
9.5104218,0.047637939,0.38767207,3,15
11.063339,0.13174438,0.4654038,4,5
13.145309,0.24630737,0.5945549,5,10
16.504822,0.42861938,0.77791071,6,9
60.7892,2.9133606,14.509758,14,33
24.035019,0.84213257,1.0473092,7,6
6.9427032,-0.11434937,0.21038437,0,10
38.22139,1.5559692,1.8397943,8,8
7.6107941,-0.079742432,0.25750089,1,6
37.932327,1.5319519,3.1234722,9,26
8.4283142,-0.037445068,0.31825519,2,13
60.800247,2.7403259,6.0028477,10,47
9.5002594,0.016571045,0.38986027,3,15
11.057297,0.096862793,0.46663332,4,5
13.141708,0.20227051,0.59532857,5,10
16.503693,0.375,0.7783674,6,9
23.983597,0.75564575,1.0495605,7,6
6.9475861,-0.13421631,0.20934749,0,10
38.376175,1.4277039,1.8401933,8,8
7.5964203,-0.10287476,0.26145196,1,6
38.030716,1.4085083,3.1270778,9,26
8.4198914,-0.06439209,0.32042634,2,11
61.010605,2.5321045,6.017457,10,48
9.4820709,-0.013366699,0.39343739,3,12
11.063065,0.060974121,0.46619642,4,5
13.137833,0.16033936,0.59609783,5,10
16.478592,0.31762695,0.78051901,6,9
6.9504547,-0.1541748,0.2088635,0,10
38.534195,1.3050537,1.8405809,8,8
7.5897369,-0.12554932,0.263466,1,6
38.132645,1.2845154,3.1308317,9,40
8.4171753,-0.089752197,0.32134521,2,11
9.483429,-0.042236328,0.39353585,3,12
11.037003,0.02532959,0.47022045,4,2
13.133835,0.1184082,0.59686947,5,10
16.469101,0.26382446,0.78154278,6,9
23.236404,0.5632019,1.076745,7,6
6.9743805,-0.17330933,0.20231009,0,7
7.598465,-0.14755249,0.26160514,1,6
38.23024,1.1596985,3.1344571,9,13
8.4104614,-0.11529541,0.32309854,2,11
9.4768372,-0.07144165,0.39502788,3,12
11.030579,-0.0093688965,0.47145569,4,2
13.123703,0.076293945,0.59827256,5,10
16.455353,0.21255493,0.78284049,6,9
23.191788,0.484375,1.0787045,7,6
6.9559784,-0.19317627,0.20789647,0,5
44.552444,1.2868042,1.8395045,8,12
7.59935,-0.16879272,0.26167989,1,6
8.3957977,-0.13977051,0.3265146,2,13
9.477951,-0.098907471,0.39512479,3,12
11.016037,-0.042510986,0.47380304,4,2
13.099442,0.035797119,0.60113859,5,10
16.441391,0.16143799,0.78414083,6,9
23.130753,0.40908813,1.0812173,7,6
6.9336243,-0.21307373,0.21458733,0,5
44.453873,1.1394043,1.8400517,8,12
7.592392,-0.19024658,0.26369369,1,8
8.3986359,-0.1635437,0.32618368,2,13
9.4710846,-0.12661743,0.39661503,3,15
11.033066,-0.074493408,0.47168827,4,2
13.102859,-0.0035705566,0.60107088,5,10
16.439346,0.10812378,0.78461289,6,9
23.065445,0.33410645,1.0838737,7,6
6.9574127,-0.23336792,0.20804155,0,5
7.5796051,-0.21411133,0.26717019,1,8
8.3955841,-0.18881226,0.32710826,2,13
9.462265,-0.15722656,0.39846516,3,15
11.018372,-0.10931396,0.47404528,4,2
13.096359,-0.047424316,0.60206914,5,10
16.417145,0.054229736,0.78648901,6,9
23.036057,0.25308228,1.0852938,7,6
6.9618683,-0.25335693,0.20701218,0,5
7.5783539,-0.23641968,0.26773703,1,8
8.3865814,-0.2154541,0.32928789,2,13
9.4631195,-0.18606567,0.39857233,3,15
10.991745,-0.14605713,0.47808385,4,2
13.08963,-0.089141846,0.60306227,5,10
16.404755,0.00073242188,0.78766727,6,9
22.966324,0.17492676,1.0881113,7,6
6.9508514,-0.2727356,0.21039498,0,5
7.5905609,-0.25726318,0.26491034,1,8
43.710587,0.66571045,3.3259509,9,18
8.3696442,-0.23971558,0.33312488,2,13
9.4638519,-0.21347046,0.39867568,3,15
10.972794,-0.1789856,0.48099518,4,2
13.082687,-0.12875366,0.60404968,5,10
16.396072,-0.049835205,0.78855848,6,9
9.2093964,-0.2147522,3.5484653,14,1
22.912247,0.10147095,1.0903543,7,6
