x,y,z,ring,intensity
3.8990936,-4.8431396,0.30545342,0,12
6.0085907,-8.9070435,2.0594525,8,30
4.2158051,-5.4564209,0.36369145,1,6
5.9981689,-8.8886414,2.4228499,9,28
4.6612701,-6.3218384,0.41413033,2,2
5.9904327,-8.8793335,2.7869577,10,26
5.2016754,-7.3687744,0.49920344,3,1
5.9903107,-8.8807678,3.154109,11,18
6.0108795,-8.9403992,0.59347355,4,2
5.9833069,-8.868866,3.5221467,12,27
6.004776,-8.9302673,0.96356481,5,37
5.9849243,-8.877594,3.8976984,13,17
6.0002441,-8.9271545,1.3302588,6,32
5.9720612,-8.8543091,4.2708659,14,22
5.9942017,-8.9171448,1.6954111,7,38
5.9691925,-8.854248,4.6550407,15,24
3.8774261,-4.8455811,0.30757344,0,12
5.9824066,-8.9317322,2.0597367,8,37
4.2008514,-5.4772949,0.36107016,1,6
5.9749908,-8.9230652,2.4240224,9,35
4.6391449,-6.333252,0.41420126,2,2
5.9643402,-8.9039612,2.7879386,10,38
5.1801147,-7.393219,0.49742591,3,1
5.9623718,-8.901825,3.1549451,11,30
5.9782257,-8.9527283,0.59405518,4,2
5.9573822,-8.8977661,3.5244553,12,33
5.9777985,-8.9575806,0.96263611,5,35
5.9515839,-8.8881226,3.8966455,13,23
5.9785461,-8.9607544,1.3293331,6,36
5.9318848,-8.8552551,4.2669005,14,33
5.9707184,-8.9471741,1.6952482,7,36
5.9386139,-8.8699341,4.6551385,15,34
3.8566742,-4.8475647,0.30969048,0,12
5.9526825,-8.9537048,2.0599518,8,39
4.1762238,-5.4767456,0.36381805,1,6
5.9542084,-8.958374,2.4252968,9,41
4.6077728,-6.3294067,0.4176904,2,6
5.9364929,-8.9293518,2.7889247,10,35
5.145462,-7.3887329,0.50061429,3,1
5.931839,-8.921875,3.1555402,11,28
5.9511261,-8.9799194,0.59271002,4,4
5.9241486,-8.9125061,3.5242434,12,36
5.9613495,-9.00177,0.95998186,5,35
5.9201813,-8.9063721,3.8971319,13,23
5.9523468,-8.9898376,1.32872,6,34
5.9180756,-8.9038391,4.275588,14,38
5.9472809,-8.9815674,1.6950254,7,33
5.9063568,-8.8863525,4.655241,15,40
3.8419952,-4.8636475,0.30768645,0,12
5.9273834,-8.9844971,2.0603528,8,38
4.153244,-5.4818726,0.36522591,1,6
5.9270477,-8.9855652,2.4260421,9,41
4.5809174,-6.3342285,0.4192822,2,6
5.9112396,-8.9600525,2.7904406,10,33
5.1362152,-7.4376831,0.49448788,3,1
5.9047699,-8.9489441,3.1571193,11,28
5.92836,-9.0159302,0.59015739,4,6
5.9024506,-8.9500427,3.5281277,12,36
5.9385376,-9.0379028,0.95819336,5,39
5.8957672,-8.9384766,3.9006896,13,25
5.9233093,-9.0134583,1.3284142,6,34
5.8874664,-8.9237061,4.2765951,14,38
5.9218597,-9.0123596,1.6948682,7,36
5.8844757,-8.9233398,4.661582,15,43
3.8272552,-4.8797607,0.30568254,0,12
5.9081879,-9.02771,2.0610144,8,38
4.1293793,-5.4851379,0.36708128,1,6
5.897995,-9.0090942,2.4265735,9,39
4.5549164,-6.3406982,0.42049432,2,6
5.8929749,-9.0048523,2.7933695,10,35
5.1160583,-7.4655151,0.49208939,3,1
5.879364,-8.9794312,3.1591907,11,30
5.8885345,-9.0181274,0.59219289,4,8
5.8803864,-8.9832153,3.5313773,12,33
5.9172821,-9.0775146,0.95606112,5,37
5.8755646,-8.9793396,3.9061666,13,23
5.9012756,-9.0513,1.3272895,6,34
5.8585358,-8.9468689,4.2785068,14,36
5.8980713,-9.0466309,1.6946459,7,36
5.863266,-8.9620361,4.6684432,15,37
3.8072662,-4.885376,0.30677116,0,12
5.8850555,-9.0593262,2.0614479,8,38
4.1124573,-5.5022583,0.36535513,1,6
5.8732758,-9.0415039,2.42764,9,37
4.5257721,-6.337677,0.42359912,2,4
5.8636627,-9.0238953,2.7938209,10,35
5.0800018,-7.4614258,0.49528158,3,1
5.861618,-9.0215454,3.1629791,11,32
5.8565521,-9.0317993,0.59253263,4,6
5.8512726,-9.0064697,3.5327408,12,33
5.8878937,-9.1010132,0.95547724,5,37
5.854187,-9.0140686,3.9104877,13,23
5.8815918,-9.0900879,1.3260576,6,34
5.8364105,-8.9839478,4.2840352,14,38
5.8704224,-9.0692749,1.6946142,7,38
5.8374786,-8.987793,4.6716599,15,34
3.78479,-4.8835754,0.30991828,0,12
5.8574829,-9.0863342,2.061775,8,38
4.0973358,-5.5206299,0.36317825,1,6
5.8509064,-9.0748291,2.4288082,9,37
4.5049896,-6.3545227,0.42253494,2,6
5.8379364,-9.0543823,2.7953372,10,38
5.0523224,-7.4706116,0.49598432,3,1
5.8393707,-9.059082,3.1660352,11,32
5.8202972,-9.0408325,0.59360158,4,6
5.82901,-9.0438843,3.5366261,12,33
5.8635406,-9.1307983,0.95420033,5,35
5.8249054,-9.037262,3.9121265,13,23
5.8573914,-9.1242676,1.3251381,6,36
5.8149261,-9.0227966,4.2900162,14,38
5.8498077,-9.1106262,1.6942619,7,38
5.8065338,-9.0073242,4.6728029,15,34
3.7655792,-4.8929749,0.30997872,0,12
5.8288727,-9.1115112,2.0620651,8,37
4.0689697,-5.5171509,0.36682677,1,6
5.8233185,-9.1061096,2.4297733,9,39
4.4781342,-6.3588867,0.42412579,2,6
5.813797,-9.0884094,2.7972074,10,38
5.0236359,-7.4846802,0.49607444,3,1
5.8144073,-9.0955811,3.1688507,11,32
5.7900848,-9.0622253,0.59298038,4,6
5.8048248,-9.0776978,3.5398812,12,31
5.8374634,-9.1657104,0.95258987,5,37
5.7955933,-9.0646667,3.9145384,13,23
5.8321381,-9.1565857,1.3243213,6,34
5.7940826,-9.0632935,4.2964501,14,38
5.8255768,-9.1491699,1.6939805,7,38
5.7873688,-9.0553589,4.6822691,15,39
3.7489471,-4.9053345,0.30900526,0,12
5.8011322,-9.1427612,2.0624721,8,37
4.0459442,-5.5218201,0.36823368,1,6
5.798111,-9.1383362,2.4308403,9,39
4.450119,-6.363739,0.42571998,2,6
5.7904205,-9.128479,2.7996125,10,33
4.9962769,-7.4979553,0.49616015,3,1
5.7865601,-9.122345,3.1704307,11,32
5.7503815,-9.0682373,0.59453678,4,4
5.7753601,-9.1051331,3.5418811,12,31
5.8076782,-9.1889954,0.95200628,5,5
5.7720642,-9.1000671,3.9188647,13,23
7.326355,-12.349976,1.1438897,6,23
5.7670898,-9.0914917,4.2997189,14,36
5.7620392,-9.0868835,4.6870513,15,36
3.732254,-4.9176636,0.30803192,0,12
4.0245819,-5.5299377,0.36874533,1,6
4.4266815,-6.375061,0.42579317,2,6
4.9790802,-7.5325317,0.49251986,3,1
5.756012,-9.1436157,3.1712725,11,6
5.7115021,-9.0715027,0.59632897,4,6
6.8345184,-11.425751,0.73979318,5,2
5.7449493,-9.1282959,3.9216561,13,11
7.2828522,-12.373047,1.1439259,6,42
5.7374573,-9.1143799,4.301631,14,18
7.5025177,-12.836121,1.6283776,7,7
5.7332001,-9.1114197,4.6897545,15,15
3.7122192,-4.9229736,0.30911994,0,12
4.0040436,-5.5397034,0.36880922,1,6
29.586227,-59.426117,5.4139242,9,49
4.3997955,-6.3791199,0.42738318,2,6
29.515427,-59.315521,7.7241554,10,47
4.9481659,-7.5385132,0.49384749,3,1
29.469864,-59.23111,10.043858,11,50
5.6785889,-9.0871277,0.59643137,4,6
29.402084,-59.099609,12.368714,12,49
6.8002014,-11.459717,0.73854589,5,2
7.241806,-12.401398,1.1436553,6,42
7.4350739,-12.812775,1.6293328,7,5
3.690506,-4.9246521,0.31123829,0,12
3.9917603,-5.5671082,0.36439788,1,6
29.385849,-59.542877,5.4156432,9,49
4.3766327,-6.3879089,0.42783177,2,6
29.32753,-59.430725,7.726891,10,47
4.9256439,-7.5622253,0.4920702,3,1
29.287277,-59.35675,10.048901,11,50
5.6430511,-9.092926,0.59773517,4,4
29.237961,-59.290527,12.385753,12,49
6.7488098,-11.45752,0.74073637,5,2
7.2054291,-12.43396,1.1430708,6,44
5.2381744,-8.2233887,4.0652933,14,2
7.3718872,-12.791687,1.6302148,7,3
3.6730042,-4.9328308,0.31129241,0,12
8.8666382,-16.058899,2.2041731,8,3
3.9671936,-5.5656738,0.36714363,1,6
4.3489838,-6.3900146,0.42980051,2,6
4.8843842,-7.5422668,0.49773943,3,1
29.130569,-59.565918,10.064809,11,50
5.6125793,-9.113739,0.59711313,4,6
29.069534,-59.473846,12.401531,12,49
6.7163239,-11.490295,0.73948264,5,2
7.1548615,-12.442139,1.1439244,6,44
7.2889099,-12.733337,1.6317841,7,5
3.6594086,-4.9519653,0.30825782,0,10
3.9440613,-5.5699463,0.36854982,1,6
4.3303528,-6.4116516,0.42759812,2,6
4.8717041,-7.5873413,0.49223673,3,1
28.94783,-59.720551,10.073333,11,50
5.5745392,-9.1182556,0.59866273,4,4
6.6849518,-11.531128,0.73754799,5,2
7.1101685,-12.46283,1.144062,6,44
7.2339935,-12.734497,1.6322815,7,7
3.6376801,-4.9534607,0.31037581,0,12
3.9242096,-5.5812683,0.36816609,1,6
28.950455,-60.229218,5.4411263,9,50
4.2993927,-6.4064026,0.4310832,2,6
4.8669586,-7.6503906,0.48363066,3,1
28.761002,-59.867493,10.080873,11,50
5.5356903,-9.1207886,0.60045314,4,6
6.638504,-11.539337,0.73870647,5,2
7.0678864,-12.48877,1.143893,6,42
7.1766815,-12.72998,1.6328756,7,11
3.6191559,-4.9619141,0.31043255,0,10
3.906723,-5.5978088,0.36643982,1,6
4.2701263,-6.4046326,0.43380952,2,6
4.8390045,-7.6630859,0.48371637,3,1
28.575119,-60.017487,10.088904,11,50
5.5026093,-9.1358032,0.60055447,4,4
6.5953217,-11.554565,0.73917735,5,2
7.0279846,-12.520081,1.1434174,6,39
7.1219025,-12.730682,1.6333717,7,11
3.5974274,-4.9632263,0.31255007,0,10
3.8859406,-5.6071777,0.36650336,1,6
28.54808,-60.468689,5.44521,9,50
4.2481384,-6.4188538,0.43312335,2,6
4.7997131,-7.6505127,0.48814702,3,1
28.396713,-60.184998,10.099399,11,50
5.472702,-9.1579895,0.59969091,4,4
6.5553741,-11.576904,0.73896062,5,2
7.0737457,-12.745728,1.6336082,7,7
3.5812531,-4.9768372,0.31106102,0,10
3.8683014,-5.6236267,0.36477697,1,6
28.301468,-60.487122,5.4413543,9,50
4.2212982,-6.4222412,0.43471193,2,6
28.281296,-60.482971,7.7770886,10,48
4.7669525,-7.6521301,0.49009418,3,1
28.198044,-60.308441,10.103983,11,50
5.4451294,-9.1855164,0.59810352,4,4
28.206924,-60.369263,12.477916,12,49
6.5153046,-11.599121,0.73874402,5,2
6.9817047,-12.658966,1.1381774,6,2
7.023941,-12.756958,1.6339091,7,7
3.5626221,-4.9850769,0.31111753,0,10
8.1983795,-15.483765,2.1902399,8,3
3.8427277,-5.6221619,0.36752462,1,2
28.142105,-60.701874,5.4490776,9,50
4.1960602,-6.4291382,0.43554187,2,6
4.7549133,-7.7006836,0.48397243,3,1
28.00853,-60.453094,10.111522,11,50
5.4094391,-9.1948242,0.59892821,4,4
6.4783783,-11.62854,0.73784018,5,2
6.9025116,-12.602264,1.1426033,6,2
6.9741364,-12.768036,1.6342096,7,11
3.5439911,-4.9932556,0.31117392,0,12
3.8288727,-5.6473999,0.36356139,1,2
27.968735,-60.886993,5.4550862,9,50
4.173172,-6.4413452,0.43523443,2,4
4.7252197,-7.7094116,0.48467815,3,1
27.834152,-60.633514,10.123988,11,50
5.373703,-9.203949,0.59975243,4,8
6.4365387,-11.646851,0.73796678,5,2
6.878006,-12.669647,1.1400861,6,5
6.9227142,-12.775269,1.6345743,7,16
3.523819,-4.9978333,0.31226063,0,10
3.8079224,-5.6565247,0.36362457,1,2
27.818222,-61.126617,5.464314,9,50
4.1479034,-6.4480286,0.436064,2,4
4.6955109,-7.7180176,0.48538363,3,1
27.655685,-60.806213,10.13547,11,50
5.3379822,-9.2129211,0.60057652,4,6
6.3946381,-11.665039,0.73809302,5,2
6.8530579,-12.737061,1.1375697,6,7
6.8752594,-12.791412,1.6347771,7,20
3.5051117,-5.0058899,0.31231678,0,10
3.7838745,-5.6583862,0.36547709,1,2
27.611313,-61.237427,5.466033,9,50
4.1226044,-6.4546204,0.43689346,2,4
4.6595612,-7.7119446,0.48857105,3,1
27.465408,-60.952789,10.143502,11,50
5.3069153,-9.2327881,0.59995353,4,6
6.3542328,-11.686737,0.73787594,5,2
6.803421,-12.747467,1.1382172,6,10
6.8325043,-12.818451,1.6347859,7,26
3.4864197,-5.0138855,0.3123728,0,12
3.7621307,-5.6655579,0.3659873,1,6
27.394577,-61.3255,5.4664636,9,50
4.0965424,-6.4593201,0.43810177,2,4
27.336563,-61.232025,7.807909,10,48
4.629837,-7.7202759,0.48927581,3,1
27.26976,-61.08783,10.150058,11,50
5.2780914,-9.2579956,0.5986073,4,6
27.26442,-61.118042,12.53097,12,50
6.3168488,-11.715607,0.73697174,5,2
6.7693176,-12.794525,1.1368239,6,7
6.7966156,-12.861938,1.6345044,7,30
3.4706879,-5.0289307,0.31036854,0,10
3.731308,-5.6510315,0.37186515,1,6
27.202347,-61.471741,5.4703274,9,50
4.0720062,-6.4675598,0.43855178,2,2
27.14299,-61.374237,7.8135071,10,48
4.598587,-7.724884,0.49060106,3,1
27.079727,-61.236908,10.158584,11,50
5.2399139,-9.2611694,0.60015392,4,6
27.057236,-61.226807,12.534767,12,50
6.2762299,-11.73703,0.7367543,5,2
6.7295837,-12.828552,1.136145,6,10
6.7620392,-12.909027,1.6341588,7,30
3.4499054,-5.0315247,0.31196964,0,10
3.7090912,-5.656311,0.37282217,1,6
26.99614,-61.588409,5.4724736,9,50
4.0499115,-6.4812317,0.4378649,2,2
26.947861,-61.486176,7.8165951,10,48
4.5736237,-7.7440796,0.48944414,3,1
26.900925,-61.417175,10.171298,11,50
5.2080231,-9.2789612,0.59977186,4,12
26.863998,-61.341827,12.540423,12,50
6.241745,-11.773224,0.73516369,5,2
6.6958771,-12.870941,1.1349494,6,7
6.7188568,-12.935852,1.6341678,7,30
3.4320526,-5.0389404,0.31202269,0,10
3.6906586,-5.6681824,0.37198675,1,6
26.8134,-61.728943,5.4763055,9,50
4.0242615,-6.4833374,0.439448,2,2
26.777573,-61.655853,7.8253474,10,49
4.5542908,-7.773468,0.48642206,3,1
26.729141,-61.582703,10.18275,11,51
5.1783447,-9.2976685,0.59914362,4,8
26.669724,-61.452026,12.545449,12,50
6.2000275,-11.786133,0.73562622,5,2
6.6709747,-12.935242,1.1325306,6,5
6.6747742,-12.954071,1.6342986,7,30
3.4112701,-5.039093,0.31413555,0,10
3.6692047,-5.6727295,0.37294042,1,6
26.634567,-61.880066,5.480782,9,50
4.0045624,-6.4999084,0.43799937,2,2
26.59407,-61.825836,7.8337774,10,49
4.5258331,-7.7808533,0.48712218,3,1
26.555038,-61.74408,10.193708,11,51
5.1463165,-9.310791,0.59923828,4,6
26.505966,-61.668427,12.568177,12,50
6.1567383,-11.795258,0.73643196,5,2
6.6290894,-12.965332,1.1320562,6,10
6.6403961,-12.996155,1.6340109,7,28
3.3938904,-5.0503235,0.31316137,0,10
3.6459808,-5.6758728,0.37434423,1,6
26.478561,-62.120178,5.490231,9,51
3.986496,-6.524231,0.43503857,2,2
26.405167,-61.984222,7.8411465,10,49
4.4915009,-7.77771,0.4896872,3,1
26.361893,-61.891022,10.202236,11,51
5.1185303,-9.3391724,0.59740961,4,4
26.330643,-61.858856,12.58649,12,50
6.1232452,-11.834595,0.73449814,5,2
6.5811005,-12.980469,1.1323972,6,5
6.6012421,-13.033569,1.6338269,7,26
2.6660919,-3.2528076,2.9132001,15,1
3.3764648,-5.0615234,0.31218684,0,10
3.6213379,-5.675293,0.37664199,1,6
26.279617,-62.256226,5.4936666,9,51
3.9683228,-6.5484619,0.432078,2,2
26.218491,-62.149353,7.8492236,10,49
4.4631348,-7.7891541,0.48977065,3,1
26.157639,-62.011566,10.207313,11,51
5.0824738,-9.347229,0.59823215,4,4
26.138168,-62.008423,12.597859,12,50
6.0806885,-11.851715,0.73462331,5,2
6.5596619,-13.062195,1.1290693,6,2
6.5670624,-13.083923,1.633418,7,24
3.3611298,-5.0780334,0.30966759,0,10
3.5988464,-5.6800537,0.37759829,1,6
26.081467,-62.395294,5.4973173,9,51
3.9485626,-6.5690308,0.42987537,2,2
26.01918,-62.284424,7.8544683,10,49
4.4347076,-7.800415,0.48985398,3,1
25.999649,-62.249481,10.228165,11,51
5.0471344,-9.3569946,0.59881341,4,4
25.949326,-62.168427,12.611123,12,50
6.051239,-11.901978,0.73166049,5,2
6.5355377,-13.138397,1.1260481,6,2
6.5208893,-13.104401,1.6335233,7,20
3.3386383,-5.0765076,0.3122977,0,10
3.5792084,-5.6919861,0.37676537,1,6
25.872482,-62.507721,5.4994626,9,51
3.920105,-6.5675659,0.43221915,2,2
25.846878,-62.489319,7.8664417,10,49
4.4148712,-7.8337402,0.48621607,3,1
25.809891,-62.409485,10.238665,11,51
5.0175629,-9.3814392,0.59746671,4,6
25.739487,-62.276398,12.61555,12,50
6.0084381,-11.918793,0.73178554,5,2
5.8482208,-11.517761,1.2159312,6,16
6.4767914,-13.13028,1.6335322,7,18
3.3141022,-5.069519,0.31647217,0,9
6.9557648,-14.436554,2.1651425,8,2
3.5609283,-5.707489,0.37503827,1,6
25.689041,-62.686462,5.505477,9,51
3.9030304,-6.5952759,0.42850113,2,2
25.654709,-62.645447,7.8738127,10,49
4.3720245,-7.8080139,0.4925009,3,1
25.61644,-62.561493,10.248179,11,51
4.9929047,-9.4187622,0.59443355,4,6
25.554916,-62.449951,12.631339,12,50
5.9612885,-11.924316,0.73293936,5,2
3.831192,-6.4061279,3.2853994,13,2
5.7750854,-11.451904,1.2205333,6,64
6.4354706,-13.163513,1.6334127,7,18
3.2979431,-5.0840454,0.31446755,0,9
6.8466949,-14.30719,2.1622734,8,2
3.536972,-5.7084045,0.37688828,1,6
25.540451,-62.957947,5.5168676,9,51
3.8843842,-6.6192932,0.42554092,2,2
25.461716,-62.800995,7.8811831,10,49
4.3463593,-7.8263855,0.49134362,3,1
25.420822,-62.709259,10.2572,11,51
4.9601898,-9.4356079,0.59405088,4,4
25.377853,-62.645081,12.650916,12,51
5.9283905,-11.966919,0.73066318,5,2
5.6981659,-11.374481,1.2257445,6,57
6.4003906,-13.213379,1.6330047,7,22
3.2803345,-5.0949097,0.31349289,0,9
6.7542877,-14.218384,2.1602316,8,2
3.5123596,-5.7073669,0.37918532,1,6
25.354752,-63.135742,5.5228848,9,51
3.8586578,-6.624939,0.42636907,2,2
25.276474,-62.978333,7.8906808,10,49
4.32341,-7.8520813,0.48894596,3,1
25.221603,-62.848999,10.265236,11,51
4.9232025,-9.4412231,0.5951134,4,4
25.195602,-62.828674,12.668601,12,51
5.8825226,-11.97583,0.73147357,5,2
5.6154938,-11.279877,1.2318698,6,40
6.3629303,-13.257629,1.6326932,7,22
3.2619934,-5.1039124,0.31303298,0,7
6.6794281,-14.174011,2.1590941,8,2
3.492569,-5.7190247,0.37835217,1,4
25.262375,-63.563538,5.543313,9,51
3.8287811,-6.6194458,0.4294697,2,2
4.2961426,-7.8665771,0.48840845,3,1
4.887619,-9.4504089,0.59569383,4,4
5.8464813,-12.010712,0.72988319,5,2
5.5524445,-11.235291,1.2352443,6,35
6.3195953,-13.286774,1.6326382,7,22
3.242691,-5.1132202,0.3125757,0,9
6.5896149,-14.088074,2.1571233,8,2
3.4716949,-5.7310181,0.37752199,1,6
25.054398,-63.722351,5.5480747,9,52
3.8235931,-6.6800842,0.41893411,2,2
4.2728729,-7.8963623,0.48539507,3,1
4.8575287,-9.4743347,0.59434712,4,6
5.8011475,-12.027649,0.73001361,5,2
6.2758179,-13.322266,1.632494,7,15
3.2189178,-5.1075745,0.31623411,0,7
6.5034637,-14.017609,2.1554601,8,5
3.4497528,-5.7370605,0.37803006,1,4
24.849899,-63.857666,5.5517292,9,52
3.7883301,-6.6638184,0.42431068,2,2
4.2345734,-7.881073,0.48981762,3,1
4.8235474,-9.4932251,0.59372795,4,6
5.7551575,-12.036133,0.73082316,5,2
5.4480743,-11.201599,1.2389364,6,2
6.235611,-13.360504,1.6322789,7,24
3.203476,-5.1214905,0.31422675,0,6
6.4249725,-13.9505,2.1538939,8,10
3.4309082,-5.7480774,0.37719369,1,4
24.658707,-63.995697,5.5557823,9,52
3.7704315,-6.6870728,0.42134738,2,2
4.2045441,-7.883606,0.49113548,3,1
4.7908783,-9.5051575,0.59382129,4,4
5.7140503,-12.051117,0.73094058,5,2
5.3947601,-11.174255,1.2412841,6,2
6.2010345,-13.407166,1.6318974,7,26
3.1833496,-5.1226196,0.31582284,0,1
6.3564758,-13.909393,2.1528559,8,10
3.404068,-5.7370911,0.38172174,1,2
24.481705,-64.17453,5.562202,9,52
3.7550507,-6.7177124,0.41686928,2,2
4.1799011,-7.9009399,0.48997366,3,1
4.758194,-9.5169983,0.59391451,4,4
5.6756134,-12.073486,0.73037231,5,2
5.3248138,-11.106079,1.2458744,6,2
6.1621246,-13.442505,1.631708,7,24
3.1746063,-5.1585999,0.30764079,0,3
6.2898712,-13.880188,2.1520505,8,10
3.3873901,-5.7575684,0.37865305,1,2
24.261673,-64.270386,5.563704,9,52
3.7330017,-6.7339783,0.41542459,2,2
4.1577148,-7.9298706,0.48695612,3,1
4.7190704,-9.5162048,0.59569788,4,6
5.6455536,-12.126556,0.72706866,5,2
5.2740936,-11.09024,1.2476153,6,2
6.1193085,-13.474731,1.6315893,7,24
3.1470337,-5.1417542,0.3143872,0,3
6.2308502,-13.871429,2.1516609,8,10
3.3654022,-5.7632751,0.3791604,1,2
24.07045,-64.448364,5.5699415,9,52
3.6926117,-6.6982422,0.42458308,2,2
4.1274872,-7.9364014,0.4876579,3,1
4.6859283,-9.5321655,0.59531379,4,4
5.5940552,-12.119385,0.72924793,5,2
5.2301636,-11.093048,1.2483385,6,2
6.0723419,-13.495605,1.6316621,7,28
3.1243439,-5.14151,0.31650293,0,3
6.1732635,-13.866211,2.1513462,8,10
3.3442841,-5.7748413,0.37832987,1,2
23.855118,-64.595795,5.5742741,9,52
3.6706085,-6.714325,0.4231379,2,2
4.0984039,-7.9507446,0.48712373,3,1
4.6540375,-9.5517578,0.59444821,4,4
5.5457306,-12.127838,0.73006225,5,2
5.1757812,-11.065491,1.2506877,6,2
6.0366058,-13.556763,1.6310719,7,18
3.104538,-5.1463318,0.31707168,0,6
6.1178436,-13.874817,2.1513035,8,15
3.3292389,-5.8007202,0.37392056,1,2
23.637375,-64.700867,5.5764198,9,52
3.6472321,-6.7307129,0.42169619,2,2
4.0706787,-7.9645386,0.48658562,3,1
4.6196442,-9.5699463,0.5938282,4,4
5.504715,-12.150452,0.7294997,5,2
5.1222382,-11.045929,1.252635,6,2
3.0841064,-5.1492615,0.31815493,0,6
6.0712738,-13.892914,2.151474,8,18
3.2977142,-5.7785339,0.38113165,1,2
23.45137,-64.899689,5.5839515,9,52
3.6275482,-6.7499084,0.41949034,2,2
4.0340118,-7.9520264,0.49038541,3,1
4.5854492,-9.5774231,0.59440196,4,4
5.463623,-12.172913,0.72893679,5,2
5.072876,-11.024841,1.2545702,6,4
5.4670563,-12.189789,1.6548781,7,1
3.0664825,-5.1572571,0.31769133,0,6
6.0298309,-13.934418,2.1521068,8,26
3.2811127,-5.7965088,0.37850714,1,2
23.261612,-65.05249,5.5890813,9,52
3.5964966,-6.7397156,0.4233458,2,2
4.0102386,-7.9725647,0.48860335,3,1
4.5501556,-9.5872803,0.59473956,4,4
5.4271393,-12.202057,0.72768307,5,2
5.0204468,-11.000366,1.2567135,6,7
5.3927307,-12.113556,1.6565286,7,1
3.0435944,-5.15271,0.32083297,0,6
5.9887848,-13.977692,2.1527777,8,31
3.2608795,-5.807373,0.37767315,1,2
23.254105,-65.792206,5.6274304,9,53
3.5742035,-6.7554321,0.42190051,2,2
3.9824371,-7.986084,0.48806477,3,1
4.5191956,-9.610199,0.59339213,4,4
5.3820496,-12.212952,0.72814763,5,2
4.9814301,-11.015503,1.2567223,6,9
3.0243835,-5.1590881,0.32088637,0,3
5.9418488,-14.003784,2.1531067,8,36
3.241806,-5.8219299,0.37594533,1,2
3.5518494,-6.7711487,0.4204551,2,2
3.957016,-8.006958,0.48628676,3,1
4.4862823,-9.6273193,0.59276676,4,4
5.3331909,-12.21228,0.72963917,5,2
4.9330292,-11.002014,1.2582545,6,29
5.2495728,-11.971405,1.6596328,7,1
3.0075226,-5.1727295,0.31888115,0,3
5.899765,-14.044922,2.1537399,8,34
3.2202606,-5.8289795,0.37600505,1,2
3.528183,-6.782959,0.41976678,2,2
3.9266052,-8.0127258,0.48698711,3,1
4.4563141,-9.6538086,0.59093809,4,4
5.2893372,-12.226593,0.72976065,5,2
5.1757355,-11.890289,1.6613408,7,1
2.9869232,-5.1775208,0.31945169,0,3
5.858017,-14.096375,2.1545706,8,36
3.1977997,-5.8363647,0.37606764,1,2
23.005905,-67.449463,5.7102375,9,54
3.5034332,-6.7952271,0.41908205,2,2
3.8925018,-8.0113831,0.48893046,3,1
4.4191742,-9.6638184,0.59127998,4,4
5.2396393,-12.230164,0.73091507,5,2
4.8482971,-11.010681,1.2593875,6,69
2.9685669,-5.1833801,0.31950223,0,3
5.8203888,-14.144073,2.1553495,8,36
3.179657,-5.8503723,0.37433696,1,2
3.4844666,-6.8177795,0.4161191,2,2
3.8647614,-8.0202332,0.48900676,3,1
4.3823395,-9.6630554,0.59281504,4,4
5.1954956,-12.23584,0.73171449,5,2
4.8196411,-11.051239,1.2579684,6,73
5.0902557,-11.917786,1.6615765,7,1
2.9479218,-5.1817932,0.32161093,0,3
5.7848663,-14.199371,2.156281,8,34
3.1625824,-5.8680115,0.37171257,1,2
23.805374,-71.570709,5.9366417,9,59
3.4607086,-6.8252869,0.41618431,2,2
3.8428955,-8.0478821,0.48598564,3,1
4.3526764,-9.6848755,0.59146261,4,2
4.811142,-11.153564,0.83040953,5,2
4.7798309,-11.063751,1.2580776,6,52
5.0495605,-11.930573,1.6616881,7,1
2.9251556,-5.1767578,0.32475102,0,1
5.7411499,-14.238129,2.1568773,8,28
3.1454773,-5.8897095,0.36819756,1,2
23.571945,-71.706329,5.9405646,9,59
3.4321594,-6.8218384,0.41852391,2,2
3.8077393,-8.038147,0.48916292,3,1
4.3199921,-9.7033997,0.5905962,4,2
4.7568207,-11.120361,0.83462656,5,2
4.7440643,-11.089539,1.2574762,6,30
2.909256,-5.1938171,0.32171655,0,1
5.6954803,-14.271057,2.1573591,8,34
3.1179962,-5.8777771,0.37272477,1,2
23.350662,-71.883209,5.9468603,9,59
3.403656,-6.8182983,0.42086291,2,2
3.7796021,-8.0509338,0.4886235,3,1
4.289505,-9.7293701,0.58876753,4,2
5.0796356,-12.32196,0.72796261,5,4
4.7058563,-11.107483,1.2572807,6,45
4.9637299,-11.957092,1.6619222,7,1
2.8899078,-5.199707,0.32176912,0,1
5.6542511,-14.319153,2.1581464,8,33
3.1018829,-5.9030457,0.36831629,1,2
23.13884,-72.093811,5.9550986,9,59
3.376358,-6.8183899,0.4224447,2,2
3.7536774,-8.0711975,0.48684502,3,1
4.2497253,-9.7248535,0.59078741,4,2
4.7123108,-11.263123,0.82423687,5,2
4.6646881,-11.115814,1.2575922,6,38
2.8716278,-5.2092285,0.32079256,0,3
5.6132965,-14.36908,2.1589718,8,30
3.0800476,-5.9096375,0.36837542,1,2
22.917831,-72.277008,5.9618273,9,59
3.358078,-6.8485107,0.41797137,2,2
3.7231293,-8.0762329,0.48754406,3,1
4.2134247,-9.7315979,0.59136367,4,2
4.6467438,-11.191254,0.83187389,5,2
4.626358,-11.133514,1.2573963,6,19
4.8207245,-11.79126,1.6653208,7,1
2.8522186,-5.2150269,0.32084501,0,1
5.5709381,-14.415009,2.1597214,8,33
3.0592804,-5.9198608,0.36754107,1,2
22.692368,-72.44812,5.9679084,9,59
3.3329163,-6.855957,0.4180392,2,2
3.6981812,-8.1001282,0.4851464,3,1
4.1860352,-9.7686768,0.58809173,4,2
4.6064453,-11.203186,0.83198273,5,2
4.5918579,-11.164551,1.2564905,6,7
4.7783356,-11.803802,1.6654351,7,1
2.8295441,-5.2095642,0.32398427,0,2
5.5305634,-14.468536,2.1606238,8,30
3.0406647,-5.9375,0.36491978,1,2
22.461533,-72.603119,5.9731274,9,59
3.3077545,-6.8633118,0.41810691,2,2
3.6664581,-8.1011353,0.48646426,3,1
4.1495819,-9.7752075,0.58866763,4,2
4.5727692,-11.237915,0.83003867,5,2
4.589447,-11.306732,1.2497041,6,2
4.7080536,-11.720154,1.6671301,7,1
2.8122711,-5.2226257,0.32197857,0,3
5.4893036,-14.52002,2.1614885,8,24
3.0165558,-5.9363708,0.3667655,1,2
22.258591,-72.857269,5.9839597,9,59
3.2879791,-6.8894958,0.41439068,2,2
3.6347656,-8.1021118,0.48778176,3,1
4.1185913,-9.8006592,0.58683896,4,2
4.5301056,-11.241943,0.83083117,5,6
4.5410309,-11.291565,1.2512324,6,2
2.7949219,-5.2356262,0.31997287,0,1
5.4460907,-14.565643,2.1622391,8,22
2.9903717,-5.9276733,0.37039757,1,2
22.026871,-73.014771,5.9893947,9,60
3.2626953,-6.896698,0.41445827,2,2
3.6041718,-8.10672,0.48847997,3,1
4.0799103,-9.7993164,0.58837628,4,2
4.5405121,-11.433716,0.81486523,5,2
4.4960327,-11.28775,1.2521518,6,2
2.7754211,-5.2411194,0.32002485,0,3
5.4111481,-14.631561,2.1634035,8,19
2.9684296,-5.9338074,0.3704561,1,2
21.79216,-73.163849,5.9943981,9,60
3.2344208,-6.8883057,0.41754925,2,2
3.5783539,-8.1283264,0.48639154,3,3
4.0478668,-9.8144836,0.58774471,4,4
4.5025635,-11.456787,0.81394899,5,2
4.4670868,-11.333252,1.2504306,6,2
2.7579041,-5.25,0.31904531,0,1
5.3732147,-14.698181,2.1645753,8,8
2.9517517,-5.9546814,0.36693823,1,2
21.590775,-73.385681,6.0036879,9,60
3.2154083,-6.9180298,0.4130764,2,2
3.5476227,-8.1266479,0.4880141,3,5
4.0139313,-9.8300781,0.58711779,4,4
4.4327393,-11.356201,0.82396901,5,9
4.4262848,-11.344513,1.2505388,6,2
2.732254,-5.2330017,0.3252697,0,1
5.3453827,-14.803284,2.1665134,8,2
2.9276886,-5.953186,0.36878312,1,2
3.1848907,-6.9060669,0.41692674,2,2
3.5185394,-8.1366272,0.48778296,3,3
3.9804688,-9.8475037,0.58625031,4,4
4.4216003,-11.47699,0.8143332,5,6
4.39534,-11.392273,1.2487223,6,2
2.7197723,-5.2644043,0.31812012,0,1
2.9107208,-5.9779358,0.36437511,1,2
3.1646271,-6.9318848,0.41321075,2,2
3.4873657,-8.138916,0.4887898,3,5
3.9484406,-9.8705444,0.58466172,4,4
4.3720551,-11.457336,0.81717706,5,13
4.369812,-11.461243,1.2457919,6,2
3.2807465,-7.3890381,1.7395816,7,1
2.6962128,-5.2546997,0.32228649,0,1
2.8856354,-5.9725647,0.36711287,1,2
3.140213,-6.9424744,0.412521,2,2
3.4592285,-8.1525574,0.48793924,3,7
3.9117432,-9.8761902,0.58523631,4,4
4.3292999,-11.462524,0.81779814,5,9
4.3886261,-11.700104,1.2339511,6,4
2.6776276,-5.2636108,0.32130909,0,1
2.8655243,-5.9859009,0.36538458,1,2
3.1107941,-6.93396,0.41561389,2,2
3.4295502,-8.1603394,0.4880172,3,5
3.8755341,-9.8836365,0.58557022,4,4
4.2960663,-11.50415,0.81517208,5,2
4.3445282,-11.7034,1.2344663,6,4
2.6561127,-5.2612,0.32341778,0,1
2.8443756,-5.9954529,0.36454916,1,2
3.0873108,-6.9481812,0.4141674,2,2
3.3983612,-8.1622925,0.48902321,3,5
3.8407898,-9.8967285,0.58518291,4,4
4.2566528,-11.522583,0.81459665,5,2
4.2647858,-11.567169,1.2422698,6,2
2.6365204,-5.2662354,0.3234688,0,1
2.8260498,-6.0162048,0.36103475,1,2
3.0647278,-6.966095,0.41196454,2,2
3.3666992,-8.1622314,0.49033833,3,5
3.8084106,-9.9193115,0.58359396,4,4
4.4768066,-12.568726,0.72312248,5,4
4.2172852,-11.554535,1.2435927,6,4
4.2456665,-11.671356,1.6708839,7,1
2.6178284,-5.2749023,0.32249117,0,1
4.6065674,-13.206665,2.1341116,8,2
2.8019257,-6.0142517,0.36287856,1,2
3.0363159,-6.9611206,0.41430008,2,2
3.3369598,-8.1697083,0.49041557,3,5
3.7739868,-9.9341125,0.58296633,4,6
4.4374695,-12.603241,0.7211895,5,4
4.1815033,-11.588196,1.2424862,6,2
4.2056122,-11.689636,1.6708671,7,1
2.5991364,-5.2835693,0.32151341,0,1
4.5496368,-13.179596,2.1334662,8,2
2.7759857,-6.0046082,0.36650801,1,2
3.0117188,-6.9712524,0.41360986,2,2
3.3062744,-8.1732483,0.4911114,3,5
3.7371368,-9.9391479,0.58353972,4,6
4.3960419,-12.629913,0.71993995,5,4
4.1445465,-11.617889,1.2415822,6,2
4.1711578,-11.731079,1.6704733,7,1
2.5812531,-5.2958679,0.31950724,0,1
4.466507,-13.043457,2.1306689,8,2
2.756546,-6.0214233,0.36388648,1,2
2.9870911,-6.9813232,0.4129194,2,2
3.27742,-8.1843567,0.49056935,3,5
3.7025909,-9.9536743,0.58291161,4,6
4.3535004,-12.652588,0.71903193,5,2
4.1135406,-11.672729,1.2393633,6,7
4.1345978,-11.764679,1.6702054,7,1
2.5597687,-5.2931213,0.32161486,0,1
2.7334137,-6.0230103,0.36483657,1,2
2.9596558,-6.9798279,0.41449785,2,2
3.2499237,-8.2011414,0.48909903,3,7
3.6666107,-9.9623108,0.58300412,4,6
4.3108673,-12.67511,0.71812391,5,2
4.0747833,-11.696411,1.2387632,6,4
4.0978241,-11.798157,1.6699376,7,1
2.5382843,-5.2902832,0.32372236,0,1
2.7138214,-6.0396729,0.36221492,1,2
2.9349823,-6.9897156,0.41380715,2,2
3.2196198,-8.2062683,0.48948503,3,5
3.633316,-9.9824219,0.58165503,4,6
4.2626495,-12.674194,0.71926498,5,4
4.0381622,-11.729675,1.2376573,6,4
2.5205536,-5.3024902,0.32171583,0,1
2.6890717,-6.0335693,0.36495054,1,2
2.9112854,-7.003418,0.41236019,2,2
3.1881256,-8.2056274,0.49079871,3,5
3.6013641,-10.008362,0.57958543,4,6
4.2181244,-12.688782,0.71903956,5,4
4.0017548,-11.754639,1.2369509,6,4
4.0058136,-11.786926,1.670656,7,1
2.5026703,-5.3105469,0.32073534,0,1
2.6661835,-6.0308228,0.36679006,1,2
2.8851471,-7.0013733,0.41393471,2,2
3.1601715,-8.2140503,0.49056172,3,5
3.5709686,-10.033661,0.57751119,4,6
4.1783905,-12.714233,0.71778381,5,4
3.9686584,-11.795013,1.2354355,6,4
3.9540558,-11.745392,1.6715728,7,3
2.4864349,-5.3261414,0.31769788,0,1
2.6484222,-6.0508423,0.36327267,1,2
2.864212,-7.0222473,0.41097176,2,2
3.1322021,-8.2224121,0.4903245,3,5
3.530899,-10.016205,0.58072078,4,6
4.1394043,-12.743439,0.71618652,5,4
3.9314423,-11.827942,1.2343302,6,4
3.9095612,-11.734924,1.6719875,7,7
2.4635468,-5.3213501,0.32032144,0,3
2.6240997,-6.0522156,0.36422491,1,2
2.8384857,-7.0279541,0.41103685,2,2
3.1020355,-8.235199,0.48947597,3,5
3.4976807,-10.037842,0.57913125,4,6
4.0913849,-12.754089,0.71630788,5,4
3.896637,-11.872498,1.2326186,6,4
3.8575439,-11.709595,1.6726626,7,7
2.4433441,-5.3237915,0.32088542,0,3
2.6100311,-6.0952759,0.35535407,1,2
2.8222198,-7.0837708,0.40127587,2,2
3.0716705,-8.2398071,0.48986089,3,5
3.4600067,-10.048096,0.57898712,4,4
4.0447998,-12.760162,0.71676445,5,2
3.8594055,-11.917389,1.2309128,6,4
3.8162689,-11.722626,1.6727061,7,15
2.4251556,-5.3356323,0.31887877,0,3
2.5802155,-6.0657959,0.36344481,1,2
2.786911,-7.0391235,0.41116667,2,2
3.0408478,-8.2424316,0.49055481,3,5
3.4255219,-10.055511,0.57907379,4,4
3.9973602,-12.762177,0.7175622,5,2
3.8203583,-11.933899,1.2306108,6,4
2.4062805,-5.3396301,0.3189261,0,3
3.951767,-12.676392,2.1226277,8,1
2.5613251,-6.0817261,0.36082017,1,2
2.764328,-7.0599365,0.4082073,2,2
3.0119171,-8.24646,0.49093544,3,5
3.3879547,-10.057312,0.57988501,4,4
3.9554901,-12.779175,0.71698844,5,4
3.7799072,-11.954651,1.2301122,6,4
2.3883667,-5.353241,0.3164053,0,3
3.90625,-12.685852,2.1227412,8,1
2.5388641,-6.0864258,0.3608762,1,2
2.7368927,-7.0576782,0.40978372,2,2
2.9862823,-8.2740173,0.48760879,3,5
3.3492279,-10.053192,0.58141613,4,4
3.9104462,-12.792572,0.71676159,5,2
3.7457581,-12.006592,1.2279975,6,4
2.3665466,-5.3478394,0.31902516,0,3
2.5179443,-6.0986938,0.35914695,1,2
2.7094574,-7.0552368,0.41136003,2,2
2.9534454,-8.2666016,0.48984814,3,5
3.3164215,-10.078125,0.57934594,4,4
3.8629761,-12.794128,0.71755803,5,2
3.7112732,-12.058472,1.2258835,6,2
2.3445129,-5.3463745,0.32061923,0,3
3.7956085,-12.606262,2.1210368,8,1
2.4950714,-6.1072388,0.35831308,1,2
14.549744,-66.654663,5.5737085,9,52
2.6866913,-7.0758667,0.40840054,2,2
2.9245453,-8.286499,0.48776221,3,5
3.280014,-10.085388,0.57943618,4,4
3.815567,-12.807648,0.7173363,5,2
3.6733856,-12.094543,1.2245774,6,2
2.324646,-5.3502808,0.32066834,0,3
2.474762,-6.1231689,0.35569119,1,2
2.657959,-7.0734863,0.40997946,2,2
2.8951263,-8.2963257,0.48721826,3,5
3.2440338,-10.104614,0.57809055,4,6
3.7741699,-12.840118,0.71540272,5,2
3.6330719,-12.130951,1.2232771,6,2
2.3069305,-5.3655396,0.31763327,0,3
3.6998138,-12.596497,2.1207192,8,1
2.4485016,-6.108429,0.36020935,1,2
2.6377563,-7.1013794,0.40550518,2,2
2.8657074,-8.3060303,0.48667419,3,5
3.2093658,-10.111298,0.5781759,4,4
3.7303619,-12.860748,0.71449268,5,2
3.5961456,-12.162445,1.2221677,6,2
2.2901001,-5.3805542,0.31459582,0,3
3.6560669,-12.612946,2.1209848,8,1
2.4263611,-6.1086426,0.36115444,1,2
2.6117401,-7.1063538,0.40556896,2,2
2.8387909,-8.321167,0.48519897,3,7
3.172821,-10.118225,0.57826555,4,4
3.6850739,-12.861176,0.71528244,5,2
3.5561066,-12.190338,1.2212659,6,2
2.2680511,-5.3787537,0.31618929,0,3
3.6107941,-12.621399,2.1210957,8,1
2.4040985,-6.1207275,0.35942745,1,2
2.5878448,-7.1227722,0.40336514,2,2
2.8084412,-8.3348694,0.48404038,3,7
3.1369781,-10.128906,0.57787502,4,4
3.6416473,-12.897583,0.71301329,5,2
3.5173492,-12.225922,1.2199605,6,2
2.2446136,-5.3634033,0.32137764,0,4
3.5568237,-12.594696,2.1205149,8,1
2.3828888,-6.1325073,0.35769784,1,2
2.5569611,-7.10849,0.40721083,2,2
2.7816315,-8.3598633,0.48102319,3,7
3.1003265,-10.145691,0.57676876,4,6
3.594696,-12.902069,0.713467,5,2
3.4833527,-12.288971,1.2172431,6,2
2.2280273,-5.380127,0.31782603,0,3
3.5138702,-12.602356,2.1206193,8,1
2.3593597,-6.1248779,0.36042714,1,2
2.5356445,-7.1322021,0.40349221,2,2
2.7506561,-8.3533325,0.48294795,3,7
3.0679474,-10.165558,0.57517374,4,4
3.5542145,-12.929565,0.71186876,5,2
3.448349,-12.335785,1.2153277,6,2
2.2106781,-5.3930054,0.31530237,0,3
3.4805145,-12.6651,2.1218081,8,1
2.337204,-6.1248169,0.36137152,1,2
2.5114899,-7.1404419,0.40279675,2,2
2.7241669,-8.3720093,0.48085427,3,7
3.0343933,-10.179504,0.57429838,4,4
3.5135651,-12.956879,0.7102704,5,2
3.4067535,-12.359253,1.2146282,6,2
2.1922455,-5.4059753,0.31278121,0,3
3.439743,-12.7005,2.1224604,8,1
2.3159027,-6.1363831,0.35964155,1,2
2.491272,-7.1798096,0.39605868,2,2
2.695694,-8.3889465,0.47907341,3,5
2.9969788,-10.181885,0.57486701,4,6
3.4710846,-12.988434,0.70833671,5,2
3.362381,-12.366821,1.2147353,6,2
3.3920135,-12.549316,1.6626856,7,1
2.1721649,-5.4093933,0.31282961,0,3
3.4001007,-12.743713,2.1232679,8,1
2.2932587,-6.1401978,0.35969603,1,2
2.4623871,-7.1687317,0.39914453,2,2
2.6681061,-8.4116211,0.47636533,3,3
2.9608612,-10.191986,0.57447553,4,4
3.4303589,-13.031616,0.70538068,5,2
3.3251495,-12.417633,1.2126243,6,2
3.3456421,-12.54895,1.662918,7,1
2.1501923,-5.4012451,0.31596124,0,3
3.3621216,-12.798645,2.1243083,8,2
2.271225,-6.1477966,0.35885811,1,2
2.4329987,-7.1536865,0.40298557,2,2
2.6352997,-8.4030151,0.47860193,3,1
2.9266052,-10.213715,0.57264471,4,4
3.3798065,-13.015656,0.70753777,5,2
3.2882233,-12.47226,1.2103121,6,2
3.3018951,-12.564178,1.6629018,7,1
2.1307068,-5.4082947,0.31498146,0,3
3.3187408,-12.821869,2.1247287,8,2
2.2479401,-6.1476135,0.35980451,1,2
2.4104919,-7.1811523,0.39851451,2,2
2.6059723,-8.415741,0.47743881,3,1
2.8909607,-10.227478,0.57177329,4,4
3.3412628,-13.074341,0.7032181,5,2
3.2472076,-12.503082,1.2092097,6,2
3.2636566,-12.614868,1.6623273,7,1
2.1096039,-5.4116211,0.31503177,0,3
3.2782745,-12.864685,2.1255369,8,2
2.2247162,-6.1552124,0.35896909,1,2
2.3878326,-7.2085876,0.39404392,2,2
2.5750275,-8.4285889,0.47627938,3,1
2.853714,-10.231323,0.572101,4,4
3.2920685,-13.082092,0.70333529,5,2
3.2096405,-12.557495,1.2068982,6,2
3.220993,-12.6539,1.6619446,7,1
2.0915375,-5.4281311,0.31148255,0,4
3.230423,-12.876129,2.1257296,8,2
2.2037811,-6.1703186,0.35634661,1,2
2.3542328,-7.1740417,0.40166485,2,2
2.5443878,-8.4333191,0.4763521,3,1
2.8152313,-10.239258,0.57195318,4,4
3.246933,-13.101074,0.70242405,5,2
3.1676788,-12.600281,1.2051972,6,2
3.1768036,-12.668762,1.6619284,7,1
2.0697784,-5.4274902,0.3125602,0,4
3.1907196,-12.926605,2.1266935,8,2
2.1787262,-6.1661987,0.35818732,1,2
2.3296967,-7.1896667,0.39946043,2,2
2.5133667,-8.4459839,0.47519219,3,1
2.779129,-10.250641,0.57132113,4,4
3.1970367,-13.104492,0.70288134,5,2
3.1288605,-12.650513,1.203088,6,2
3.1313629,-12.691681,1.6617936,7,1
2.0511322,-5.432251,0.31209159,0,3
3.1541901,-13.000763,2.1281242,8,2
2.1567688,-6.1655273,0.35913026,1,2
2.3007355,-7.1741028,0.40329981,2,2
2.4843292,-8.4502563,0.47526097,3,1
2.7439423,-10.267914,0.56996953,4,4
3.1547546,-13.126831,0.70162368,5,2
3.0858307,-12.673004,1.2023892,6,2
3.0950165,-12.745544,1.661153,7,1
2.0309296,-5.4351807,0.31213903,0,3
3.1199188,-13.094574,2.1299448,8,2
2.1329346,-6.1610718,0.36096787,1,2
2.2805023,-7.2206421,0.39505184,2,2
2.4536285,-8.4546509,0.47533309,3,1
2.7085114,-10.284973,0.56861782,4,4
3.1082611,-13.137482,0.70139325,5,2
3.0464325,-12.722961,1.2002807,6,2
3.0581665,-12.81543,1.6602707,7,1
2.0120697,-5.4475708,0.3096174,0,3
3.0822754,-13.168457,2.1313772,8,2
2.1112671,-6.1719666,0.35923696,1,2
2.2556915,-7.2359924,0.39284754,2,2
2.4242401,-8.46875,0.4738605,3,3
2.6716614,-10.292114,0.56846476,4,4
3.0633087,-13.159821,0.70014083,5,2
3.0062103,-12.76889,1.1983738,6,2
3.0154266,-12.845551,1.6600074,7,1
1.9920807,-5.45224,0.30915082,0,3
3.0420074,-13.22644,2.1324992,8,2
2.0900421,-6.186676,0.35661423,1,2
2.2255554,-7.2123718,0.3981967,2,2
2.3931732,-8.4709473,0.47424114,3,1
2.6347809,-10.299133,0.56831169,4,4
3.0150909,-13.158325,0.70093191,5,2
2.9646149,-12.806732,1.19687,6,2
2.9720001,-12.871582,1.6598058,7,1
1.9716034,-5.4530334,0.30971169,0,3
3.001358,-13.284302,2.1336215,8,2
2.0677338,-6.193573,0.35577512,1,2
2.1945801,-7.1807861,0.40505588,2,2
2.3649445,-8.4946289,0.47122371,3,1
2.598877,-10.313873,0.56719923,4,4
2.9715424,-13.1922,0.69865739,5,2
2.9248199,-12.860321,1.1945612,6,2
2.9273529,-12.889557,1.6597277,7,1
1.951828,-5.4594727,0.30873108,0,4
2.9677734,-13.381348,2.1355178,8,2
2.047348,-6.2158813,0.35136867,1,2
2.177536,-7.2463684,0.39302909,2,2
2.3335571,-8.4947205,0.4719131,3,1
2.5640106,-10.322388,0.56680191,4,4
2.9217529,-13.178497,0.70046961,5,2
2.8840179,-12.889709,1.1934551,6,2
2.8864441,-12.918976,1.659459,7,1
1.9335175,-5.469574,0.30672073,0,3
2.9351044,-13.510437,2.1380444,8,2
2.0226898,-6.1954041,0.35677016,1,2
2.1481171,-7.2263184,0.39762187,2,2
2.3047028,-8.5022888,0.47136295,3,1
2.5282135,-10.338867,0.5654496,4,4
2.8798065,-13.207825,0.69852984,5,2
2.8421783,-12.931152,1.1917506,6,5
2.8512878,-13.016052,1.6581472,7,1
1.9136505,-5.4759216,0.30574,0,3
2.001236,-6.2098083,0.35414708,1,2
2.1253357,-7.2489014,0.39390349,2,2
2.2747498,-8.513916,0.47019863,3,1
2.4936981,-10.351044,0.56457222,4,4
2.8315277,-13.205658,0.6993196,5,2
2.799057,-12.944397,1.1914494,6,7
2.8097992,-13.045258,1.6578792,7,1
1.8956604,-5.4897156,0.30270219,0,3
1.97995,-6.2162476,0.35330522,1,2
2.0960846,-7.2286377,0.39849544,2,2
2.2467194,-8.5291443,0.468413,3,1
2.4554291,-10.347595,0.56561661,4,4
2.7874756,-13.218872,0.69874167,5,2
2.7595367,-13.00943,1.1885383,6,2
2.7648621,-13.06662,1.6577398,7,1
1.8744049,-5.4844055,0.30480361,0,3
1.957016,-6.2189026,0.35335755,1,2
2.0691833,-7.2277527,0.39931107,2,2
2.2165985,-8.5405884,0.46724844,3,1
2.4189606,-10.359711,0.56474316,4,4
2.7409973,-13.232208,0.69816899,5,2
2.7204437,-13.082214,1.1852255,6,2
2.7255707,-13.139526,1.6567997,7,1
1.8523712,-5.4713135,0.30895913,0,4
1.9353485,-6.2330933,0.35073447,1,2
2.0431519,-7.2345886,0.39861608,2,2
2.1855621,-8.5440369,0.46731913,3,1
2.3839417,-10.38562,0.5621922,4,2
2.6944427,-13.245392,0.69759595,5,2
2.6795959,-13.143005,1.1825167,6,2
2.6802216,-13.160583,1.6566606,7,1
1.8328552,-5.4812012,0.30695069,0,3
1.911972,-6.23172,0.35167837,1,2
2.0150299,-7.2218628,0.40169656,2,2
2.1545258,-8.5473938,0.46738946,3,1
2.3475037,-10.399506,0.56107891,4,4
2.6444855,-13.226715,0.69974566,5,2
2.6320801,-13.144073,1.1828244,6,2
2.638443,-13.217377,1.6559676,7,1
1.8148804,-5.5064392,0.30083323,0,3
1.8881989,-6.2263794,0.35351372,1,2
1.991394,-7.2519836,0.39647079,2,2
2.1234589,-8.5506287,0.46745968,3,1
2.3099823,-10.403442,0.56116366,4,4
2.595047,-13.211792,0.7015543,5,2
2.5898132,-13.196655,1.1805184,6,2
2.5951385,-13.262085,1.6554596,7,1
1.7935944,-5.5105286,0.30036807,0,3
1.8644867,-6.2326965,0.35267627,1,2
1.9656525,-7.2624817,0.39502048,2,2
2.0915985,-8.5617676,0.46629822,3,1
2.2716522,-10.399261,0.56220639,4,4
2.5500031,-13.264404,0.6975826,5,2
2.5499115,-13.276917,1.1768057,6,5
2.5475616,-13.290924,1.655203,7,1
1.7713013,-5.4932861,0.30554986,0,1
5.3559418,-42.825073,2.7137711,8,31
1.8426361,-6.246582,0.35005295,1,2
1.9358673,-7.245636,0.39885807,2,2
2.0631256,-8.5923462,0.46204555,3,1
2.2318726,-10.399139,0.56277394,4,4
2.5032196,-13.276917,0.69700849,5,2
2.4988403,-13.269806,1.1775205,6,5
2.5018005,-13.315399,1.6550026,7,1
1.7512665,-5.4990845,0.30456817,0,3
5.2270966,-42.993835,2.7171414,8,32
1.8195953,-6.2487488,0.35010445,1,2
1.9106598,-7.2479858,0.39891434,2,2
2.0308075,-8.5834656,0.46396768,3,1
2.1973114,-10.414307,0.56141615,4,4
2.45784,-13.305145,0.69507325,5,2
2.458725,-13.329681,1.1748083,6,2
1.733078,-5.5142822,0.30101657,0,3
1.7987518,-6.2623596,0.34747839,1,2
1.8872681,-7.285614,0.39217877,2,2
1.9998016,-8.5703735,0.46650338,3,1
2.160965,-10.43158,0.55982304,4,4
2.4128876,-13.313171,0.69483387,5,2
1.713089,-5.5218506,0.29952133,0,3
1.7746735,-6.2527466,0.35020435,1,2
1.8609467,-7.276062,0.39449978,2,2
1.970993,-8.600647,0.46225059,3,1
2.1250305,-10.432678,0.5601418,4,4
2.3661957,-13.329224,0.69391894,5,2
1.6936188,-5.5235291,0.29956436,0,3
1.7534027,-6.2623291,0.34846973,1,2
1.8346405,-7.2822266,0.39380383,2,2
1.9419403,-8.6109619,0.46108174,3,1
2.0870514,-10.431854,0.56070399,4,4
2.3227539,-13.356812,0.69197834,5,2
1.6717987,-5.5213623,0.30063891,0,4
1.7294769,-6.2681885,0.34763157,1,2
1.8070831,-7.2726135,0.39612699,2,2
1.9097137,-8.6214905,0.45991933,3,1
2.0503387,-10.446716,0.55934978,4,4
2.2722168,-13.356812,0.69242918,5,2
1.6510162,-5.519104,0.30171072,0,3
1.7062225,-6.2680359,0.34812796,1,2
1.7808838,-7.2982178,0.39165938,2,2
1.8775482,-8.6120605,0.46184003,3,1
2.0122375,-10.469543,0.55704188,4,4
2.22612,-13.384277,0.69049346,5,2
1.6313629,-5.5321655,0.29867482,0,3
1.6832733,-6.2716675,0.3477329,1,2
1.7541962,-7.3001709,0.39171767,2,2
1.8465271,-8.6182861,0.46129119,3,1
1.9755859,-10.488129,0.55520856,4,4
2.1767731,-13.367859,0.69229853,5,2
1.6113434,-5.5413513,0.29666555,0,3
1.6604156,-6.2771301,0.34689176,1,2
1.7274933,-7.3020325,0.39177585,2,2
1.8152008,-8.6204529,0.46135938,3,1
1.9374847,-10.486725,0.5557698,4,4
2.1312714,-13.406952,0.68934238,5,2
1.591507,-5.5542603,0.29362965,0,3
1.6375275,-6.2825623,0.34605074,1,2
1.6997833,-7.2881165,0.39485288,2,2
1.7851715,-8.6422424,0.45834124,3,1
1.8991547,-10.481293,0.55680966,4,4
2.0842438,-13.425964,0.68808663,5,2
1.5704498,-5.5440369,0.29675472,0,3
1.6150665,-6.2918701,0.34431803,1,2
1.6735687,-7.2937622,0.39415586,2,2
1.7537079,-8.6402893,0.45902646,3,1
1.8620453,-10.493591,0.55569422,4,4
2.0362091,-13.429016,0.68819058,5,2
1.5497589,-5.543335,0.2973125,0,1
1.5926666,-6.3068542,0.34124827,1,2
1.6491089,-7.3109436,0.39119172,2,2
1.7236481,-8.6657715,0.45539117,3,1
1.826889,-10.509583,0.55409575,4,4
1.9878998,-13.427795,0.68863416,5,2
1.5314484,-5.5675659,0.29119349,0,1
1.5700836,-6.2983398,0.34352398,1,2
1.6221466,-7.3084717,0.39200366,2,2
1.6927032,-8.6477356,0.4585408,3,1
1.7895966,-10.52356,0.55274069,4,4
1.9424286,-13.434296,0.68839216,5,2
1.5113831,-5.5802612,0.28815722,0,1
1.5458832,-6.2801208,0.34802997,1,2
1.5956116,-7.3138123,0.39130628,2,2
1.6614838,-8.6532593,0.45799088,3,1
1.7518463,-10.52951,0.55234289,4,4
1.8935089,-13.420837,0.68985438,5,2
1.5242004,-6.3123779,0.34094942,1,2
1.5708618,-7.3582764,0.3830626,2,2
1.6302643,-8.6587524,0.45744085,3,1
1.7136078,-10.52536,0.55314207,4,2
1.845993,-13.435089,0.68893743,5,2
1.5009613,-6.3134766,0.34099877,1,2
1.5432892,-7.343811,0.38613796,2,2
1.5996552,-8.6799011,0.45442247,3,1
1.6757965,-10.531006,0.55274391,4,2
1.7956848,-13.385468,0.69345713,5,2
1.5198212,-7.4312439,0.36959505,2,2
1.5679779,-8.6772766,0.4551059,3,1
1.63797,-10.53656,0.5523454,4,2
1.746933,-13.367493,0.69525731,5,2
1.5387421,-8.6981201,0.45208442,3,1
1.6031494,-10.573608,0.54811358,4,2
1.70401,-13.440887,0.68923736,5,2
1.5703888,-10.682007,0.53526664,4,2
1.061203,-8.8253784,0.43394279,3,1
1.0587311,-7.3926697,0.37883317,2,2
1.0291595,-8.7457581,0.44633949,3,1
1.0363922,-7.3725586,0.38264871,2,2
1.0021362,-8.7531128,0.44515967,3,1
1.1050262,-4.361969,2.7939229,13,1
1.0087128,-7.3483276,0.38722825,2,2
0.96852112,-8.7621765,0.44368398,3,3
1.0895386,-4.2948303,2.7808251,13,1
1.0111389,-6.3987427,0.32328796,1,2
0.98008728,-7.3612976,0.38464451,2,4
0.93719482,-8.7454224,0.44621181,3,3
0.9881134,-6.3824158,0.32689631,1,2
0.95478821,-7.3526611,0.38620222,2,4
0.90565491,-8.7385254,0.44719815,3,5
0.96577454,-6.3816223,0.32693958,1,2
0.92726135,-7.3693848,0.38286161,2,4
0.87484741,-8.755188,0.44448304,3,5
0.96806335,-5.7570801,0.24307311,0,1
0.94276428,-6.3690491,0.32965672,1,2
0.90037537,-7.366333,0.38329065,2,4
0.84300232,-8.7559509,0.44423604,3,5
0.87944031,-7.7833862,1.172961,5,1
0.95266724,-5.6210022,0.27902651,0,1
0.91880798,-6.3797607,0.32703018,1,2
0.87379456,-7.3573914,0.38485014,2,4
0.81086731,-8.7625122,0.44306457,3,5
0.85227966,-7.754303,1.1753894,5,1
0.93270874,-5.6239624,0.2780385,0,1
0.89622498,-6.3845825,0.32573724,1,2
0.84815979,-7.3581848,0.38452208,2,4
0.78065491,-8.7611389,0.44312239,3,5
0.82751465,-7.7092896,1.1791708,5,3
0.91288757,-5.6230164,0.27807629,0,1
0.87261963,-6.3854065,0.32533669,1,4
0.82209778,-7.3667603,0.38268638,2,4
0.74885559,-8.7595825,0.44318306,3,5
0.7999115,-7.6979675,1.1800723,5,9
0.89079285,-5.6257629,0.27709186,0,1
0.84899902,-6.364624,0.32983601,1,2
0.79360962,-7.3692017,0.38198614,2,4
0.71504211,-8.7657166,0.44201386,3,5
0.77183533,-7.6705017,1.182332,5,21
0.86869812,-5.6283875,0.27610731,0,1
0.82499695,-6.3730774,0.32765412,1,2
0.76554871,-7.363678,0.38279355,2,4
0.68264771,-8.7737732,0.4405334,3,3
0.74534607,-7.6430664,1.1845886,5,22
0.84933472,-5.6195068,0.27819657,0,1
0.80247498,-6.3756714,0.32680559,1,2
0.73999023,-7.3621826,0.38284171,2,4
0.6525116,-8.7700195,0.44089866,3,1
0.72032166,-7.6175842,1.1866723,5,28
0.82929993,-5.6221313,0.27720785,0,1
0.77980042,-6.3800964,0.32551193,1,4
0.71417236,-7.364502,0.38213587,2,4
0.6217804,-8.776001,0.4397229,3,5
0.6963501,-7.578125,1.1899421,5,55
0.80845642,-5.6207886,0.27724671,0,1
0.75631714,-6.3785706,0.3255558,1,2
0.68644714,-7.3744507,0.37992513,2,4
0.58966064,-8.777832,0.43916631,3,5
0.67060852,-7.5484619,1.1923662,5,100
0.78678894,-5.6308899,0.27420783,0,1
0.73310852,-6.3730469,0.32648993,1,2
0.65879822,-7.3823853,0.37809098,2,4
0.55766296,-8.7775879,0.4389174,3,5
-0.99261475,-30.014221,1.4085903,7,9
0.76576233,-5.6177368,0.27732599,0,1
0.707901,-6.3790588,0.32475495,1,4
0.63209534,-7.3764954,0.37889469,2,4
0.5231781,-8.7889404,0.43682301,3,5
0.74401855,-5.6277161,0.27428687,0,1
0.68440247,-6.3772278,0.32479823,1,4
0.60377502,-7.3742981,0.3789469,2,4
0.49003601,-8.8022156,0.43441749,3,5
0.72395325,-5.616394,0.2768898,0,1
0.66062927,-6.3792419,0.32395101,1,2
0.57801819,-7.3742371,0.37861693,2,4
0.45826721,-8.797699,0.43478405,3,5
0.5629425,-7.4923401,1.1966383,5,130
0.47221375,-8.5618896,1.7316806,7,1
0.7028656,-5.630188,0.27282274,0,1
0.63780212,-6.3831787,0.32265651,1,2
0.55055237,-7.3778076,0.37753582,2,4
0.42774963,-8.7970886,0.43453145,3,5
0.53829956,-7.4742737,1.1980411,5,130
0.44041443,-8.5671997,1.7316175,7,1
0.68234253,-5.6245422,0.27388656,0,1
0.61485291,-6.3753357,0.32403445,1,2
0.52253723,-7.3872375,0.37532425,2,4
0.3944397,-8.8100586,0.43212557,3,5
0.5124054,-7.4559631,1.199446,5,130
0.41465759,-8.5047302,1.7325732,7,1
0.66078186,-5.6303406,0.27187288,0,1
-1.5704193,-29.877716,2.4707994,8,40
0.59172058,-6.3693237,0.32496727,1,2
0.49517822,-7.3886719,0.37461972,2,4
0.36210632,-8.8110962,0.43156755,3,5
0.46446228,-7.6506958,1.4645325,6,1
0.38899231,-8.446106,1.7334678,7,1
0.63885498,-5.6282654,0.27191234,0,1
-1.6694489,-29.80014,2.4696345,8,39
0.56636047,-6.3747864,0.32323146,1,2
0.46760559,-7.3920288,0.37353802,2,4
0.32739258,-8.8197327,0.42978013,3,5
0.4365387,-7.6480103,1.4645828,6,1
0.36064148,-8.4032288,1.7341247,7,1
0.61955261,-5.6108704,0.27605259,0,1
-1.770462,-29.693817,2.4679189,8,39
0.54173279,-6.3841248,0.32060313,1,4
-1.781189,-29.767578,3.5275645,9,10
0.43943787,-7.3872986,0.37396574,2,4
0.29579163,-8.8126221,0.43045354,3,5
0.41725159,-7.5457458,1.4696206,6,1
0.33126831,-8.3882751,1.734359,7,1
0.59689331,-5.6163635,0.27404022,0,1
-1.865921,-29.591736,2.4662716,8,38
0.51786804,-6.3738708,0.32242739,1,2
0.41163635,-7.392334,0.37250698,2,6
0.26139832,-8.8170776,0.42928159,3,5
0.37931824,-7.6422729,1.4646851,6,1
0.30299377,-8.3491821,1.7349547,7,1
0.57594299,-5.6374817,0.26791978,0,1
-1.9574585,-29.505768,2.4649322,8,38
0.49674988,-6.3735962,0.32201993,1,2
-1.9598541,-29.496216,3.5141132,9,9
0.38447571,-7.405304,0.3695389,2,4
0.2325592,-8.81604,0.42902493,3,5
0.36068726,-7.5679626,1.4683207,6,1
0.27539062,-8.3502808,1.7349434,7,1
0.55589294,-5.627533,0.27000809,0,1
-2.054245,-29.42691,2.4637599,8,37
0.47370911,-6.367218,0.32295156,1,2
0.35829163,-7.3945923,0.37109363,2,4
0.19883728,-8.8282776,0.4266181,3,5
-2.0827484,-29.545197,5.6355076,11,12
0.3506012,-7.4277649,1.200754,5,1
0.3250885,-7.6364136,1.4647815,6,1
0.24900818,-8.3111572,1.7355351,7,1
0.53721619,-5.6060181,0.27517271,0,1
-2.1496124,-29.339844,2.4624262,8,37
0.4485321,-6.380127,0.31943274,1,4
0.33079529,-7.3954468,0.37038779,2,4
0.16545105,-8.8364868,0.42482698,3,5
-2.1754608,-29.430939,5.6227579,11,25
-2.2360077,-29.885803,6.7645063,12,14
